0,0,0,0,0,0,0,0,100,100,4,4,9,4,0,0,0,0,4,12,12,4,0,4,4,4,3,9,4,4,4,8,7,7,17,12,8,4,4,3,4,4,3,4,4,4,9,9,4,4,8,8,4,4,8,12,9,4,9,8,4,0,0,0,0,0,9,3,4,0,4,12,12,4,0,0,4,4,4,8,8,12,8,4,3,8,8,12,4,4,9,9,4,4,3,4,0,4,8,0,13,4,0,0,4,4,0,9,4,4,8,8,4,3,8,8,9,4,4,0,8,29,50,41,25,4,18,4,13,20,36,32,24,16,20,27,32,24,34,25,28,40,31,24,12,8,9,4,9,0,9,17,20,20,8,0,0,0,4,13,9,4,8,16,12,3,4,4,4,12,28,41,25,8,25,29,15,25,20,16,20,31,48,56,56,45,20,12,12,12,8,4,0,0,0,0,0,0,0,0,9,9,0,0,0,0,0,0,0,0,8,16,12,8,4,9,4,0,13,17,20,20,16,22,13,9,12,16,20,16,26,8,16,24,41,28,20,7,16,25,20,15,15,15,28,44,47,43,48,52,52,48,39,47,47,52,40,31,31,40,35,43,47,43,52,52,47,43,39,45,31,41,36,35,43,53,40,27,20,24,32,32,24,15,16,16,25,19,29,28,28,20,12,13,9,4,13,8,12,9,4,0,0,0,4,9,4,4,4,0,4,8,8,3,3,8,12,12,13,14,4,3,9,4,4,0,9,4,9,7,16,16,4,9,9,4,4,0,4,14,16,36,36,33,8,35,20,23,41,45,57,32,53,48,34,29,20,20,16,16,16,16,11,20,25,16,16,20,25,24,23,32,27,32,23,27,23,20,20,19,27,28,23,36,31,32,20,20,20,33,19,24,20,15,15,16,11,15,24,16,11,16,15,28,28,20,12,8,0,8,8,4,17,16,20,24,28,24,20,24,20,17,12,28,40,36,20,16,12,12,11,16,11,12,8,8,9,9,4,3,7,12,12,12,3,0,9,8,7,8,8,17,8,4,4,3,4,4,4,4,13,8,7,16,7,4,9,12,12,3,4,3,12,8,7,11,16,16,11,16,16,12,16,11,16,20,20,25,12,16,28,37,27,32,36,36,28,27,27,32,32,55,57,55,50,52,52,56,51,47,45,32,23,23,24,33,23,20,20,20,20,24,16,12,8,4,4,9,9,0,4,8,4,4,4,12,8,8,8,8,8,8,3,8,8,12,3,8,4,4,0,0,0,0,4,8,4,0,0,4,13,4,9,12,12,3,8,12,4,13,8,16,20,20,20,20,24,38,29,28,44,50,67,67,52,36,31,31,36,31,40,27,29,16,18,13,8,3,12,20,38,19,33,24,20,24,20,15,16,20,37,32,20,26,9,17,16,21,41,4,4,8,16,24,27,28,15,17,13,4,8,12,0,8,17,8,3,12,17,4,8,8,4,8,17,8,9,0,4,8,3,13,16,16,29,24,20,20,20,9,21,31,4,9,4,8,4,11,16,12,12,8,4,9,0,4,4,8,7,12,4,12,23,31,36,28,16,9,16,32,36,100,100,100,100,100,100,100,100,100,100,100,100,100,36,36,28,32,49,88,100,100,100,100,100,100,100,100,37,54,52,61,31,47,55,13,33,13,37,37,32,41,29,25,32,28,15,21,16,12,8,3,4,0,4,12,12,4,9,12,12,12,12,12,12,12,12,12,11,20,16,8,12,16,19,56,23,33,65,43,23,11,12,25,31,38,44,43,55,100,100,100,100,67,34,59,95,31,31,46,100,52,17,94,95,96,32,27,44,40,41,32,27,31,28,29,23,28,41,36,31,36,34,8,29,45,35,31,36,40,43,49,27,32,31,27,43,58,65,32,37,63,69,100,98,98,81,55,63,31,32,27,43,85,70,27,35,29,8,18,73,15,100,100,100,0,0,0,0,0,0,0,0
0,0,0,0,0,0,0,0,100,100,9,4,9,4,0,0,0,0,4,3,8,12,8,4,4,0,9,4,4,4,4,8,3,12,3,9,9,0,0,0,0,4,13,4,0,9,4,8,4,0,0,0,0,0,0,4,8,9,9,4,0,0,0,0,0,4,3,9,0,4,8,4,4,9,8,12,12,12,12,12,8,8,8,8,4,4,8,3,4,4,12,8,4,4,8,8,4,4,8,3,13,3,3,4,4,4,9,8,4,4,0,0,4,12,12,8,9,4,4,4,12,37,40,35,32,12,0,4,3,8,12,12,11,20,23,32,29,30,12,20,23,32,32,33,25,12,8,8,12,12,4,17,16,30,8,4,8,12,8,8,8,4,8,12,8,4,4,4,4,4,8,8,14,17,25,16,12,4,0,0,9,21,25,47,48,17,9,3,11,16,12,4,0,0,4,8,12,12,12,8,8,8,4,0,0,0,0,0,0,0,4,13,8,12,4,4,4,3,20,19,20,18,17,20,23,24,19,15,16,20,32,20,21,25,23,23,37,41,27,19,16,16,15,24,24,28,40,47,51,56,43,40,45,39,43,44,40,35,39,47,43,39,35,41,41,35,39,44,40,28,24,24,20,42,44,39,50,32,20,24,36,31,31,32,29,32,27,33,23,24,20,16,17,4,9,12,16,3,4,4,4,0,0,0,4,9,9,8,3,3,4,9,9,0,4,8,12,12,16,12,4,9,8,4,4,4,3,4,12,12,8,4,4,4,9,13,13,8,3,4,12,29,32,28,32,60,34,12,12,58,100,100,100,100,48,23,28,32,31,36,32,29,24,20,16,20,24,28,32,23,23,36,40,32,23,29,20,15,19,32,32,28,29,24,19,19,24,20,20,24,16,17,12,16,12,12,16,20,20,12,12,16,23,31,36,23,16,8,3,12,21,21,12,16,20,23,28,28,15,26,12,17,25,28,28,25,7,3,8,12,12,8,13,4,9,8,12,4,8,12,8,8,7,12,8,7,12,8,8,4,4,3,13,8,12,12,8,8,4,4,9,9,8,12,9,3,12,12,7,12,12,4,14,4,12,12,8,7,11,12,12,12,16,16,11,24,20,16,25,19,24,28,28,32,36,36,36,40,44,40,54,35,36,39,73,67,60,39,40,35,31,36,36,40,53,35,29,21,13,9,18,9,17,16,8,4,9,8,8,4,0,4,9,8,3,8,4,0,4,13,4,4,3,8,3,4,0,4,4,8,4,0,0,0,4,12,8,4,0,4,13,4,8,8,4,9,8,8,0,3,4,12,16,20,16,12,8,13,0,12,32,57,51,48,35,40,44,39,48,44,27,23,24,20,44,16,20,33,36,39,47,43,52,40,45,36,24,15,15,11,27,12,20,16,8,4,8,8,16,18,17,21,16,20,20,16,8,0,13,8,12,12,3,4,13,9,0,0,4,13,12,12,4,12,21,12,8,3,4,4,0,0,8,16,16,21,7,12,30,9,38,41,37,34,16,4,8,12,12,12,12,8,3,17,3,8,4,0,8,8,13,20,24,29,23,27,27,29,17,13,21,16,100,100,100,100,100,100,100,100,100,100,100,100,100,100,87,100,100,100,100,84,65,100,100,100,100,100,100,100,100,100,76,41,16,37,100,43,68,47,40,44,40,31,40,31,36,33,24,21,12,16,20,25,24,28,28,28,38,100,100,100,100,100,11,20,20,20,16,12,8,16,25,24,23,44,79,79,59,4,13,12,29,31,42,20,68,100,100,100,100,100,100,20,98,71,83,74,8,100,100,100,55,47,100,35,27,27,40,51,56,40,32,37,28,28,23,32,31,32,28,23,32,96,36,31,35,45,28,36,58,40,49,39,31,28,19,86,100,100,100,43,100,58,62,100,100,89,31,31,31,45,28,52,98,32,23,20,16,58,47,100,32,100,100,100,0,0,0,0,0,0,0
0,0,0,0,0,0,0,0,100,100,4,9,3,4,0,0,0,0,0,0,4,8,12,3,12,7,8,9,4,4,8,4,4,12,7,12,8,4,4,0,0,4,9,4,4,3,9,4,0,0,0,0,0,4,3,9,4,4,4,4,9,8,8,8,8,8,3,3,4,0,4,4,4,9,12,12,12,7,12,8,4,4,8,4,12,8,4,0,0,4,0,4,0,4,13,9,0,0,4,8,8,3,13,4,4,3,3,3,0,12,8,4,4,9,3,4,4,4,4,4,8,8,12,29,28,20,12,12,3,8,12,25,23,37,32,32,23,33,15,23,32,27,32,44,40,32,33,33,15,12,21,8,4,18,8,8,12,16,8,4,4,3,9,9,13,3,8,9,4,8,7,16,24,20,13,4,3,4,0,4,12,16,16,21,21,30,17,8,12,12,7,12,4,4,12,15,23,19,11,12,4,4,3,4,0,0,0,0,0,0,8,16,20,16,12,3,12,12,8,18,21,16,7,9,21,15,25,20,28,28,23,20,11,29,50,47,47,47,35,28,24,20,23,36,36,45,39,47,39,49,40,35,44,40,27,31,35,39,43,47,39,40,35,32,23,20,20,20,29,16,8,13,35,24,32,23,25,16,24,36,35,36,41,35,40,36,28,24,24,16,8,17,16,12,7,12,8,4,4,4,9,3,4,0,4,13,4,8,4,9,4,7,11,7,0,8,8,12,8,4,4,4,8,8,4,4,8,7,12,8,4,9,9,9,8,12,7,12,8,3,4,21,23,36,35,56,47,39,52,88,100,100,100,79,57,27,27,32,37,37,36,36,27,28,27,27,32,36,27,28,28,29,32,27,32,25,12,12,20,33,27,31,40,28,24,20,20,20,16,7,9,8,29,28,33,29,15,16,12,21,16,20,25,25,24,23,24,20,25,23,23,23,23,20,12,12,16,20,8,0,7,19,28,25,12,12,12,12,12,11,7,4,8,9,4,4,4,8,8,8,12,12,4,4,12,12,12,12,4,0,4,8,8,8,8,9,9,8,3,8,8,13,4,0,13,21,16,12,3,7,11,12,4,9,4,4,17,16,15,25,20,24,20,20,25,20,20,24,23,33,19,33,32,36,40,49,44,39,52,50,55,60,51,57,57,64,59,56,39,40,43,56,51,51,52,35,24,16,22,18,17,13,8,12,3,0,4,0,0,0,4,8,12,7,8,4,0,0,4,0,4,0,9,0,9,4,4,8,0,8,12,8,4,0,4,8,12,8,0,4,4,4,8,4,4,12,12,12,12,12,12,12,7,7,7,7,8,9,4,18,11,24,37,32,27,31,36,40,52,43,31,27,27,35,49,32,35,56,47,44,44,44,49,44,39,40,32,24,23,24,25,34,24,13,13,4,9,8,12,24,23,20,8,18,8,12,8,4,8,12,21,17,4,3,8,8,4,8,12,16,12,4,4,12,21,12,12,12,3,8,12,17,8,13,9,3,16,8,26,7,17,25,20,25,9,12,8,4,0,4,3,4,17,12,8,3,3,4,9,13,8,16,11,20,23,27,36,31,33,12,4,12,18,100,100,100,100,100,100,100,100,100,100,100,100,100,100,83,100,100,100,100,60,89,97,84,100,100,100,100,100,100,100,100,54,55,100,100,100,54,37,40,40,40,31,35,44,40,27,33,37,32,28,29,20,29,100,100,100,100,100,100,100,29,15,15,25,21,25,20,12,3,14,13,23,37,64,13,91,100,94,75,29,72,54,60,61,100,96,98,94,100,100,43,80,69,35,49,100,95,96,28,63,57,15,36,40,41,40,57,56,43,40,28,32,36,27,32,27,23,32,31,57,59,56,35,36,44,43,68,50,36,51,67,32,12,4,8,58,100,61,82,92,100,100,100,100,83,50,54,43,43,37,35,23,22,12,12,12,12,47,63,71,100,100,100,0,0,0,0,0,0,0
0,0,0,0,0,0,0,100,100,100,9,4,4,4,0,0,0,0,0,0,0,0,4,4,8,12,4,4,4,4,4,8,9,4,9,4,4,13,4,0,0,4,13,4,0,0,4,8,4,0,0,0,0,0,9,4,4,4,9,8,12,12,12,12,12,12,8,4,0,4,9,3,3,13,3,3,4,4,13,4,0,0,9,13,8,8,4,0,0,0,9,0,0,4,12,8,4,0,4,8,4,4,9,4,4,4,9,12,7,7,12,4,4,12,12,8,9,4,4,4,4,0,4,8,12,21,11,12,17,12,15,24,29,23,33,28,36,49,41,23,33,28,27,36,40,31,36,32,20,8,13,16,39,20,16,11,12,12,3,17,16,8,8,12,8,3,7,21,16,15,16,11,20,24,29,12,12,12,12,8,7,12,15,38,39,17,4,8,4,4,12,11,12,8,8,16,26,18,8,12,4,0,9,0,0,0,0,0,0,4,7,11,16,15,24,29,24,16,4,20,29,12,3,8,4,3,8,12,24,20,15,20,24,35,51,64,51,40,32,28,32,28,28,23,37,35,48,48,40,31,35,39,35,27,36,40,36,32,36,37,27,31,36,36,28,25,21,12,13,9,9,29,31,32,34,11,8,3,24,36,36,32,27,31,36,23,24,24,25,16,12,8,8,12,12,12,12,12,4,4,9,13,4,4,4,4,9,4,4,8,8,8,13,9,4,17,16,21,8,8,12,12,9,9,4,4,12,12,4,0,4,3,4,4,0,0,4,4,12,12,4,9,17,24,35,39,40,52,64,73,72,73,65,39,31,27,32,20,16,12,20,24,20,16,24,29,19,24,23,23,20,7,16,29,15,21,13,16,15,16,20,28,32,24,21,8,3,12,12,12,17,16,29,37,36,23,16,16,15,24,24,16,7,3,12,20,23,28,23,28,15,11,25,20,17,4,9,18,4,4,12,16,15,16,12,8,8,8,4,9,13,4,4,8,4,9,8,12,3,4,3,8,8,3,3,4,4,8,7,12,12,12,8,4,0,4,13,4,0,4,9,0,4,4,7,21,12,7,21,16,12,8,4,4,8,4,3,12,20,23,28,28,28,28,19,20,20,19,19,24,32,40,40,44,48,47,48,44,49,47,51,47,61,51,39,44,60,81,67,82,63,55,57,31,33,24,23,27,35,40,33,7,8,8,8,12,16,16,12,8,8,7,16,12,8,9,4,4,8,12,0,4,4,8,8,8,0,12,8,3,8,12,12,12,12,8,4,4,0,9,0,4,4,0,4,3,8,8,12,16,16,12,7,7,7,7,12,9,12,25,19,20,20,23,36,32,37,19,29,28,27,31,36,44,47,61,43,48,45,27,28,28,23,32,31,36,36,32,27,37,32,37,25,17,9,3,9,12,9,21,21,4,17,21,12,9,13,3,4,8,25,16,17,3,8,12,16,12,13,8,0,13,3,3,4,0,9,13,17,7,12,16,8,8,21,12,17,9,7,17,4,8,12,12,16,8,4,0,4,3,8,8,9,9,8,4,9,0,9,18,8,12,20,24,23,23,24,24,23,28,25,9,11,16,57,100,100,100,100,100,100,100,100,100,100,100,100,100,100,100,100,69,34,100,75,100,100,100,100,87,90,40,100,100,100,100,100,100,94,68,74,100,70,39,44,32,40,52,58,39,47,48,40,27,34,11,29,100,12,100,100,100,94,100,100,100,100,81,23,32,32,29,25,25,47,67,56,100,100,43,100,77,100,61,100,100,100,45,65,37,100,4,89,44,42,12,20,84,72,68,59,56,52,43,35,31,35,39,40,41,32,28,32,27,35,35,31,34,8,19,35,35,35,40,33,17,23,47,67,75,39,28,31,100,48,100,53,23,65,63,100,100,100,100,100,63,100,60,24,41,36,41,33,14,19,29,20,20,24,20,9,84,92,33,100,100,0,0,0,0,0,0,0
0,0,0,0,0,0,0,100,100,100,4,0,9,0,0,0,0,0,0,0,0,0,4,8,4,4,4,4,9,3,13,13,8,12,7,8,4,13,4,0,0,4,3,4,0,0,4,8,8,3,4,4,3,3,3,8,8,9,4,4,3,3,7,16,12,7,7,12,12,12,7,17,12,12,8,13,4,4,9,8,4,4,8,8,4,8,3,8,8,3,8,8,4,4,3,4,0,0,0,4,12,8,9,4,4,8,7,12,12,4,4,4,3,12,12,8,8,3,8,4,4,12,21,16,12,7,12,12,12,11,16,12,12,16,21,12,29,40,39,32,20,15,32,32,36,35,32,16,9,4,8,18,20,20,11,16,8,9,0,4,18,13,4,4,4,8,20,29,25,13,18,9,4,12,16,12,8,21,25,15,15,20,28,36,41,29,8,4,0,0,4,12,8,4,8,16,25,16,21,8,4,4,3,4,0,0,0,0,0,4,12,16,12,11,29,23,29,11,8,13,13,3,4,8,4,4,12,20,15,25,24,27,45,44,43,53,53,35,41,32,32,23,19,33,28,28,32,37,36,31,32,36,40,52,39,36,31,41,23,32,36,27,27,27,32,32,28,17,21,28,16,8,34,16,12,11,20,29,29,29,29,20,29,24,16,16,15,16,8,8,4,4,3,3,8,12,12,8,4,4,9,9,8,8,13,4,4,12,12,8,9,4,4,4,8,11,25,16,12,4,9,8,12,8,4,4,12,8,3,12,12,8,9,8,7,12,17,7,8,8,12,12,3,12,37,36,40,39,52,39,31,27,23,23,23,28,20,16,7,12,16,16,12,8,9,7,20,23,27,32,32,33,20,21,21,11,34,24,29,20,28,19,16,7,7,8,9,4,12,20,33,29,16,16,16,8,8,8,12,16,8,8,12,12,12,16,16,15,19,20,16,17,8,17,25,29,21,8,12,8,0,3,12,12,12,12,8,4,4,8,12,4,21,16,12,3,9,14,4,8,8,9,4,0,0,0,4,8,12,12,8,3,8,8,4,4,3,4,4,8,4,13,3,8,8,4,9,12,21,7,4,0,0,4,8,8,4,9,12,16,19,23,23,27,28,29,23,23,27,31,40,35,35,31,31,35,43,56,52,47,51,60,59,68,68,73,67,74,87,100,92,59,40,41,37,46,49,48,39,49,32,20,12,16,20,33,24,20,15,15,20,11,16,12,12,16,12,8,8,9,4,9,3,4,4,8,0,8,12,12,12,7,7,12,12,9,4,9,3,8,4,4,4,4,3,4,0,4,8,12,12,12,3,8,3,8,9,4,17,16,20,24,28,31,36,27,29,16,8,12,15,28,28,27,43,59,52,27,28,27,24,20,29,24,24,29,23,28,23,29,34,30,8,8,13,9,9,17,7,7,12,9,13,4,16,15,20,20,17,13,4,3,21,20,29,19,20,3,4,0,4,13,4,9,4,4,8,12,12,13,8,16,38,28,23,20,8,4,0,4,4,8,9,13,13,3,4,0,0,9,4,8,9,9,8,3,3,4,8,16,16,12,25,20,20,20,24,32,45,36,27,20,12,17,25,32,45,100,100,100,100,100,100,100,100,100,100,100,100,100,100,100,100,100,100,100,100,100,100,100,8,95,40,100,100,100,100,46,58,74,100,100,100,100,53,48,77,100,100,100,79,95,80,60,49,36,54,48,68,100,100,100,100,100,100,100,100,47,43,39,39,35,31,37,13,77,78,21,4,59,32,40,50,100,33,69,46,81,21,73,100,100,43,79,67,100,36,27,41,80,51,67,36,36,32,44,39,40,36,25,16,16,24,32,36,40,40,23,80,36,36,31,40,35,31,91,65,61,31,98,45,40,32,17,47,96,76,52,79,92,100,100,100,84,16,65,70,31,21,30,12,4,100,27,32,24,15,20,29,20,4,16,100,21,100,100,0,0,0,0,0,0,0
0,0,0,0,0,0,0,100,100,4,4,4,3,4,0,0,0,0,0,0,0,0,4,8,4,4,9,8,17,17,8,13,13,4,0,4,4,0,4,0,0,0,0,0,0,0,0,4,12,12,8,8,12,8,8,8,7,12,4,0,0,4,12,12,8,12,7,12,16,12,8,8,8,12,12,9,4,4,9,4,0,0,0,0,4,8,4,9,13,8,8,12,0,3,4,4,3,4,0,4,4,9,4,4,4,8,8,4,4,4,4,9,8,12,4,9,3,3,8,4,3,16,20,12,12,12,7,17,8,8,13,8,11,13,16,13,12,17,21,22,8,12,24,37,27,41,24,8,8,8,8,9,13,8,7,8,4,4,4,17,16,12,4,0,4,13,18,13,21,16,20,12,4,9,8,12,12,12,12,16,16,20,24,32,32,25,7,17,12,12,12,12,4,9,12,16,16,7,4,4,3,4,0,0,4,8,12,8,8,8,3,17,16,25,20,16,16,20,15,20,12,13,8,16,20,29,28,27,23,23,28,31,43,43,36,28,32,43,51,52,48,49,49,44,39,40,23,20,19,27,32,32,35,48,40,36,45,35,31,40,40,32,32,44,35,27,19,12,8,36,44,56,28,20,12,16,25,23,20,8,8,4,4,9,4,8,12,17,8,13,18,8,12,4,0,0,0,0,0,4,13,8,8,9,9,8,9,4,9,9,3,9,9,8,12,8,8,3,4,0,4,3,4,0,4,4,8,8,13,12,12,12,12,4,16,15,20,16,12,3,8,8,4,8,21,23,32,28,33,23,28,28,28,28,24,16,16,15,11,8,13,8,16,25,21,16,20,28,23,32,32,29,12,21,24,27,27,32,19,28,23,29,24,24,16,12,12,3,12,25,20,20,16,13,4,8,17,12,8,3,17,16,16,11,12,17,8,12,20,20,11,12,3,8,16,33,24,16,16,16,25,12,3,0,4,8,12,4,0,4,3,4,4,32,0,0,9,8,3,12,12,8,8,4,0,0,4,8,4,4,3,8,12,12,12,8,4,0,4,8,8,8,17,12,8,8,3,4,4,4,8,12,8,4,4,8,4,7,7,16,23,28,20,24,28,27,23,27,31,40,36,44,43,48,40,43,47,60,55,51,55,67,79,82,100,90,82,79,83,87,90,59,73,68,68,68,60,52,31,31,40,49,40,45,39,45,23,20,16,16,16,20,15,25,16,11,11,17,4,8,4,8,12,8,4,4,4,3,4,8,9,9,0,4,3,9,0,9,13,4,0,4,3,16,16,8,4,8,8,4,0,4,8,3,12,8,3,12,29,24,11,12,30,25,16,21,21,7,16,20,28,23,32,40,43,57,58,25,22,22,9,0,4,7,20,24,32,32,20,16,21,21,21,25,21,8,13,3,3,4,8,20,29,20,28,27,28,24,24,24,16,25,29,24,19,25,11,16,12,8,12,7,12,12,16,12,12,8,8,13,25,36,31,28,29,16,12,12,12,12,4,17,20,15,20,12,8,0,7,12,8,12,12,8,8,4,4,3,12,20,29,16,8,12,16,16,23,49,43,36,28,28,23,25,17,13,33,40,100,100,100,100,100,100,100,100,100,100,100,100,100,100,100,100,100,100,100,100,100,100,100,100,100,23,65,100,100,100,100,59,100,100,80,100,71,68,68,74,87,100,100,83,100,39,56,52,70,71,100,52,44,45,100,100,100,59,39,46,51,51,69,63,57,32,44,36,50,53,59,100,51,9,14,23,55,37,53,50,37,59,84,21,25,46,100,72,69,41,57,51,70,70,100,19,23,32,37,32,29,7,7,15,23,32,27,37,31,57,60,45,23,23,27,35,51,71,70,43,36,4,46,60,63,100,74,60,82,100,100,100,100,100,100,100,100,20,30,13,26,39,25,53,63,74,14,4,3,8,13,4,4,56,61,35,100,100,100,0,0,0,0,0,0
0,0,0,0,0,0,0,100,100,100,4,3,4,0,0,0,0,0,0,0,0,0,0,4,4,4,12,17,8,8,8,9,0,4,4,9,8,12,4,0,0,0,0,0,0,0,0,4,3,8,8,12,9,4,0,9,4,3,4,0,0,4,9,8,12,9,4,4,12,12,8,3,3,3,3,9,4,4,9,8,4,3,4,0,4,4,4,8,8,8,8,9,4,9,0,0,9,0,0,0,9,8,4,0,0,4,8,4,4,4,3,16,7,8,8,8,4,4,4,4,8,12,12,21,16,7,16,16,11,21,8,12,12,12,35,31,48,12,24,27,23,3,16,20,24,24,23,42,33,21,12,8,17,8,3,13,4,4,12,16,8,0,0,0,4,12,20,25,16,12,4,3,3,3,8,8,7,7,12,8,4,4,12,20,16,12,12,11,12,12,12,8,4,4,4,8,12,8,4,4,13,4,0,4,8,12,16,15,25,16,12,8,16,19,24,11,7,16,20,28,28,47,27,31,31,40,35,35,36,41,40,49,43,40,32,28,28,36,52,72,84,83,89,72,60,51,35,23,23,32,35,35,31,36,35,40,31,35,40,36,35,35,27,38,33,24,23,32,53,83,64,56,54,23,20,12,8,11,16,8,9,8,0,4,9,4,4,13,9,13,12,12,9,4,0,0,0,0,0,4,3,3,8,17,8,8,12,12,16,7,4,4,12,8,4,4,0,4,8,12,7,12,8,8,12,12,8,4,9,4,3,3,4,3,16,16,20,20,16,16,12,8,4,4,9,8,12,8,9,4,12,16,20,28,24,16,12,21,16,12,12,4,3,20,23,20,16,21,16,11,11,12,13,4,16,29,19,23,32,24,12,8,20,24,16,8,16,20,16,12,21,16,8,12,16,16,8,4,8,16,20,24,15,16,12,8,21,16,8,12,12,7,8,3,3,9,9,12,12,16,12,18,0,0,0,0,4,4,4,8,12,8,21,16,12,0,4,4,4,4,4,13,4,0,0,0,4,8,0,8,12,12,4,4,8,12,12,12,12,8,4,4,13,4,4,0,0,4,8,3,13,9,9,0,4,12,12,12,16,20,27,27,33,24,20,23,36,36,36,31,40,44,52,47,47,51,50,51,43,47,55,72,74,96,94,95,86,91,78,71,58,84,100,90,87,70,54,52,48,43,47,56,43,31,50,28,19,24,20,20,16,16,21,16,16,12,12,8,4,4,4,9,22,3,4,4,4,9,0,4,12,8,4,8,17,7,7,17,8,12,12,7,12,18,18,4,4,8,4,0,0,4,8,12,11,16,12,15,23,23,20,12,13,8,4,4,4,8,24,32,35,40,35,40,36,24,35,27,3,8,17,16,17,16,23,31,35,31,32,37,33,19,24,16,12,18,8,12,4,7,16,29,15,15,34,25,21,16,24,27,27,23,23,20,20,20,19,19,24,20,29,15,25,12,7,12,8,4,4,22,28,45,24,8,4,8,12,17,12,4,4,7,16,11,12,8,8,4,9,13,3,7,12,3,4,4,0,9,12,25,24,20,7,8,20,24,20,33,32,27,32,31,40,40,41,20,18,16,37,40,48,50,100,100,100,100,100,100,100,100,100,100,100,100,100,100,100,100,100,100,100,100,100,100,58,65,45,100,100,100,83,100,100,98,84,100,59,52,37,41,52,51,41,100,100,100,100,87,52,99,41,83,100,50,100,90,75,100,74,63,50,93,47,43,51,55,64,65,42,42,43,26,37,31,45,62,42,12,29,17,34,12,24,29,100,12,45,45,31,23,28,66,81,66,24,21,22,20,18,34,23,28,32,27,25,8,24,32,28,32,31,36,44,51,51,41,16,25,45,47,43,31,100,51,100,55,70,100,100,100,100,100,100,100,43,52,47,34,17,27,27,20,30,20,20,9,12,17,8,4,4,8,21,13,100,100,100,0,0,0,0,0,0
0,0,0,0,0,0,0,100,100,100,4,9,0,0,0,0,4,3,4,4,3,4,0,4,4,4,4,9,4,4,8,4,13,4,0,4,9,13,4,0,0,0,0,4,3,4,0,0,0,0,4,3,4,8,8,3,4,4,8,8,4,4,9,8,8,12,8,9,9,3,4,4,13,4,0,4,4,4,9,4,4,13,4,0,4,12,8,3,4,16,24,20,16,12,8,3,8,8,0,8,8,4,4,0,0,0,4,8,4,9,7,16,3,4,8,12,8,9,4,4,8,8,12,20,16,12,7,16,19,23,24,24,16,29,27,95,18,23,53,47,45,13,33,44,44,40,39,52,43,49,32,24,25,20,21,12,17,12,16,20,16,8,0,4,8,8,4,4,3,4,12,16,12,8,8,12,12,12,12,9,0,0,0,0,0,0,4,8,8,4,0,0,4,4,0,4,3,4,0,4,13,4,0,4,8,12,16,19,23,23,20,16,12,12,17,11,25,16,12,20,36,52,43,43,43,52,43,43,43,57,47,56,48,32,32,32,27,40,47,67,80,89,79,72,56,53,35,40,31,27,36,40,44,43,43,43,39,40,31,32,28,37,28,12,7,29,31,43,69,62,59,39,23,28,29,12,12,16,20,16,7,12,3,8,8,4,4,3,9,9,13,4,4,8,8,3,4,0,4,3,4,0,13,3,4,4,3,4,17,8,4,4,8,12,12,12,3,8,16,15,16,8,8,4,4,13,9,4,9,4,12,12,8,18,9,12,16,20,15,20,16,12,3,8,12,8,4,0,4,13,4,4,8,12,16,11,7,13,8,16,16,16,26,12,12,15,20,16,7,12,20,15,16,21,7,16,16,16,16,12,12,17,7,12,7,21,15,24,15,16,24,20,11,16,25,16,17,21,16,20,20,12,8,13,8,12,16,12,8,8,8,7,8,4,0,0,4,0,0,0,4,13,16,17,0,0,4,12,12,12,12,9,4,8,4,0,4,8,9,4,4,3,3,8,8,4,4,4,4,8,8,3,4,0,0,4,8,12,8,4,0,4,8,12,4,4,3,8,8,4,4,9,8,3,8,7,7,12,16,16,33,36,32,27,36,36,35,36,31,44,43,56,47,47,52,47,56,47,56,59,72,62,75,83,78,82,91,86,84,69,51,72,93,92,75,63,64,55,51,47,47,47,43,54,27,41,36,32,27,23,16,3,0,0,4,3,4,4,4,4,4,12,12,8,8,9,4,3,3,8,17,12,12,8,8,8,12,12,8,7,16,16,20,23,29,11,12,4,0,0,0,4,4,8,12,12,11,11,16,16,16,20,20,25,16,12,25,24,37,36,39,48,40,27,25,9,30,18,12,12,21,25,29,23,23,28,32,27,40,39,31,27,24,30,26,21,4,12,16,16,16,8,12,8,13,3,12,25,28,36,23,20,15,16,11,25,21,12,25,24,20,20,20,24,25,12,4,4,4,18,12,44,20,16,13,4,3,9,3,9,4,4,4,3,3,8,4,4,8,9,4,4,13,4,4,8,4,8,12,8,12,11,12,16,25,20,11,7,20,23,40,44,48,57,44,32,20,4,21,33,36,45,44,87,37,100,100,100,100,100,100,100,100,100,100,100,100,100,100,100,100,100,50,100,100,78,100,43,100,61,100,50,100,100,100,100,100,100,63,34,27,25,64,100,100,100,67,53,92,88,55,96,74,100,13,76,100,87,100,40,24,44,50,100,100,100,100,36,46,23,32,35,100,45,20,20,28,37,20,15,85,40,43,85,98,65,32,12,23,23,17,13,34,16,24,32,28,99,32,16,36,28,27,34,17,31,33,32,41,36,45,44,43,62,40,24,28,36,86,95,100,100,100,84,100,100,100,77,100,100,100,100,100,100,12,9,84,8,8,34,32,80,100,100,13,3,17,8,23,8,8,4,16,16,9,100,100,100,0,0,0,0,0
0,0,0,0,0,0,0,0,100,100,100,3,4,0,0,4,8,12,4,4,13,4,0,4,4,4,8,8,4,4,8,9,9,4,0,9,4,4,4,0,0,0,0,0,9,0,0,0,0,0,0,0,4,4,4,3,4,0,9,9,4,8,9,9,4,4,4,4,4,0,0,4,13,4,0,4,4,4,9,8,9,9,4,0,4,8,12,4,4,12,40,22,4,8,12,4,0,9,0,9,4,8,4,0,0,0,4,8,3,12,8,9,4,0,4,8,9,4,4,4,4,0,0,4,8,8,16,20,28,23,23,25,12,9,47,52,49,41,40,62,40,24,33,45,48,47,51,60,55,56,43,40,28,28,27,23,24,20,16,16,20,25,21,20,15,15,20,16,8,8,8,21,11,16,12,9,9,12,12,8,4,0,0,0,0,0,0,4,8,12,8,4,4,4,0,4,8,8,4,4,3,4,4,12,7,7,17,12,25,23,28,24,20,20,20,32,35,45,50,54,48,56,47,39,47,51,47,47,51,60,47,48,44,40,27,23,32,39,47,52,44,44,49,40,23,23,31,35,35,36,40,43,43,44,35,41,36,31,32,20,21,25,19,20,33,36,35,40,36,35,44,36,28,24,17,4,17,17,21,16,12,4,4,8,4,4,4,0,4,9,3,4,4,8,4,9,0,4,8,12,4,3,7,3,0,0,4,7,16,17,0,3,4,4,8,12,12,13,13,13,17,4,12,8,12,12,8,0,13,4,8,11,20,29,15,12,8,16,15,20,12,4,4,4,8,12,4,0,4,9,4,8,8,4,4,8,12,7,17,12,16,24,24,11,12,12,25,16,12,12,16,16,11,25,19,24,28,32,28,29,28,32,23,20,20,33,23,20,20,25,20,20,15,11,8,12,28,27,19,20,12,8,0,8,0,8,3,8,7,7,12,8,4,4,0,4,9,12,8,4,0,0,37,0,4,3,4,8,8,4,8,8,8,8,12,8,9,4,4,9,3,4,0,9,9,4,8,8,4,4,0,0,0,0,0,0,0,0,0,0,0,0,0,4,8,4,9,4,8,8,17,17,8,16,11,21,20,15,20,20,20,33,41,40,48,39,35,40,40,40,48,51,56,47,51,47,43,47,55,67,70,70,76,67,76,75,80,72,61,52,78,64,55,67,84,81,54,51,47,43,39,35,40,40,41,31,40,27,29,16,8,4,0,0,0,0,0,4,0,9,12,8,4,4,13,8,8,4,4,17,16,15,16,12,7,7,12,16,20,16,12,12,16,20,20,16,8,3,8,12,8,4,9,0,4,13,8,12,16,15,29,32,31,27,23,23,36,40,49,40,32,38,29,20,16,12,27,40,29,29,12,20,41,31,23,24,32,44,39,35,27,20,33,23,21,0,7,16,16,17,13,4,0,0,8,16,32,27,23,29,23,28,15,11,16,4,4,0,4,9,3,12,11,20,20,12,4,4,4,13,12,39,18,12,3,12,20,29,12,4,4,4,0,4,8,12,9,4,8,9,4,4,13,4,4,9,8,7,12,4,4,8,12,16,21,16,20,25,19,31,40,45,31,45,31,27,29,16,12,4,7,20,16,12,33,35,20,100,100,100,100,100,100,100,100,100,100,100,100,100,100,100,100,87,100,100,100,100,100,100,51,100,100,98,100,100,49,100,72,81,25,52,100,100,94,12,89,100,91,100,100,100,40,100,62,70,30,69,20,41,29,16,24,63,100,100,43,52,46,8,38,68,88,78,39,45,36,32,45,52,55,71,70,74,74,100,71,100,47,9,31,18,30,46,100,100,100,63,58,100,36,40,21,12,39,91,49,44,57,39,39,52,40,28,28,45,48,48,48,100,100,100,100,100,100,100,100,100,100,100,100,100,100,100,15,32,33,25,8,20,16,9,100,9,8,12,34,23,41,20,13,9,8,14,12,100,100,100,0,0,0,0,0
0,0,0,0,0,0,0,0,100,100,100,0,0,0,0,0,9,13,4,4,9,4,0,4,9,4,9,4,4,0,4,4,9,4,4,12,12,12,4,0,0,0,0,4,3,4,0,0,0,0,0,0,4,12,8,9,0,4,4,4,9,8,9,4,9,0,0,4,4,0,0,4,3,4,0,4,12,12,8,8,9,9,4,0,0,0,4,8,8,16,47,24,17,4,9,4,4,3,0,3,4,4,4,0,0,0,4,8,0,3,4,4,12,8,4,4,8,9,4,4,4,0,0,0,4,12,16,11,20,25,12,4,4,8,4,18,9,46,33,58,40,29,16,28,31,40,52,55,60,60,55,51,70,52,35,32,31,32,23,28,27,27,24,20,20,16,20,15,16,17,0,17,13,4,4,12,12,8,8,4,0,0,0,0,0,0,0,0,4,8,12,4,4,4,0,4,12,12,4,0,4,8,12,16,20,25,12,17,12,16,25,20,24,28,27,32,40,43,55,51,52,48,48,48,47,51,47,47,51,63,64,52,47,47,48,53,53,39,36,27,27,36,31,40,49,49,39,35,35,39,39,44,40,35,31,37,23,32,29,15,24,24,15,19,36,44,31,32,28,32,28,28,23,16,12,21,20,8,8,11,16,12,12,4,0,4,4,3,9,4,0,0,4,8,8,8,8,4,9,13,3,8,12,8,4,4,8,8,4,8,4,9,0,0,0,0,9,7,21,8,9,8,18,4,9,0,4,4,3,4,4,12,16,16,20,20,16,4,16,24,12,4,4,0,0,4,12,12,12,9,4,9,8,12,4,4,8,16,16,16,11,20,20,15,16,12,8,12,16,16,11,15,33,37,32,28,27,31,41,27,32,23,29,28,23,28,28,19,28,32,28,24,15,16,8,12,24,28,20,12,7,7,8,4,3,9,4,8,3,12,8,4,4,4,4,12,16,16,12,4,0,17,15,17,0,9,56,51,47,12,8,4,4,4,8,12,12,8,8,12,12,8,3,7,12,3,4,4,8,4,0,0,4,3,4,0,0,0,0,4,8,8,8,8,9,3,7,8,7,16,20,24,23,28,23,24,20,20,16,12,8,29,35,39,44,31,31,48,52,47,56,47,52,47,47,43,51,64,63,63,66,70,67,72,67,66,67,51,65,80,90,99,100,83,92,86,74,63,47,35,32,31,40,31,37,32,32,28,24,29,20,12,4,4,0,0,0,4,4,4,9,9,4,7,16,16,12,8,9,8,12,12,12,16,12,12,16,20,24,20,11,11,16,11,12,12,12,12,12,12,12,7,8,3,3,4,13,16,20,19,23,33,28,29,16,25,28,42,28,29,12,7,17,16,25,32,31,38,38,32,36,44,39,41,23,28,36,45,41,37,23,20,16,16,22,13,17,12,8,9,7,3,13,12,12,24,28,23,19,19,23,24,16,12,8,13,8,9,4,9,21,15,16,8,0,0,4,4,4,13,11,28,23,20,16,20,28,19,20,16,8,8,0,12,20,20,16,12,11,12,17,8,4,3,12,11,12,8,4,4,4,7,16,16,16,20,23,32,27,36,27,32,24,20,28,31,31,28,20,21,20,25,18,17,20,24,29,27,43,100,100,100,100,100,100,100,100,100,100,100,100,100,100,100,100,100,100,100,100,100,100,100,74,100,55,51,100,62,100,100,89,100,100,100,100,78,77,43,81,94,100,100,100,24,96,68,92,4,14,54,56,100,47,36,100,100,48,69,48,100,35,53,12,54,13,38,43,47,47,43,44,44,100,100,100,100,100,98,98,100,90,100,57,43,49,100,45,27,61,66,88,40,35,100,76,67,43,40,43,43,48,40,28,20,28,40,100,100,100,100,100,39,100,100,100,100,100,100,100,100,100,100,100,29,28,36,23,20,34,42,28,96,100,100,24,28,41,41,24,17,4,34,52,37,12,16,100,100,0,0,0,0,0
0,0,0,0,0,0,0,0,100,100,100,0,0,0,0,4,4,9,12,12,9,4,4,8,4,13,12,12,4,4,8,9,9,4,0,0,9,8,4,4,3,4,4,8,8,4,4,3,4,0,0,0,4,8,8,4,4,4,13,9,4,4,4,9,3,4,0,4,4,4,3,4,0,0,0,4,8,8,4,4,9,9,4,0,0,0,4,4,4,21,24,21,9,9,8,4,0,0,0,4,3,9,4,0,0,0,4,8,4,0,0,4,8,12,4,4,12,12,4,4,4,4,3,0,7,12,8,8,7,16,16,12,4,4,16,46,43,12,33,28,16,4,4,34,32,32,40,43,55,67,67,63,72,59,47,52,39,36,32,27,31,35,50,37,23,25,16,11,16,20,12,9,17,4,3,21,25,16,16,8,4,0,0,0,0,0,0,0,0,0,4,12,12,4,0,9,9,4,4,0,8,16,28,33,29,24,20,24,23,28,28,41,45,36,49,48,48,43,47,56,43,48,52,64,54,51,47,52,50,59,60,50,60,51,47,51,55,47,48,44,35,40,44,47,55,51,48,43,48,43,35,27,27,36,35,35,31,24,15,29,20,20,16,11,16,33,27,27,27,28,24,20,25,24,32,41,27,24,12,12,16,16,12,8,4,4,4,9,8,4,4,8,12,8,4,4,13,3,8,8,3,8,8,11,20,12,4,4,0,4,4,3,4,4,8,12,7,12,8,17,13,16,15,16,12,8,8,8,4,0,4,8,0,8,11,29,24,12,13,17,11,20,21,12,8,3,8,12,8,9,0,12,8,9,4,0,0,4,8,12,12,16,16,15,15,20,16,16,16,15,20,28,31,32,23,28,32,23,24,28,28,24,16,16,24,24,20,20,24,25,25,16,15,20,38,33,20,20,16,12,7,12,12,16,13,8,4,4,4,12,12,12,4,4,12,11,12,12,7,17,12,8,4,0,4,4,8,100,12,8,4,0,0,9,0,3,7,3,4,3,8,8,12,12,12,9,4,4,8,4,4,3,8,12,8,4,4,8,8,8,12,12,12,12,7,7,12,12,12,16,20,23,23,32,31,32,24,11,11,25,21,20,29,28,23,41,40,44,47,51,51,56,47,51,56,64,59,63,67,67,67,68,76,71,71,72,72,71,92,94,98,100,100,94,92,91,87,80,63,52,45,27,31,40,35,36,27,28,32,28,24,16,17,4,0,8,8,9,4,12,12,8,3,12,12,16,12,7,12,3,12,12,12,12,7,12,16,16,16,11,12,12,12,11,12,7,12,8,4,0,4,8,12,12,12,12,16,11,20,23,24,11,12,20,33,24,16,9,3,9,9,13,21,20,15,28,35,68,31,40,47,44,32,27,41,32,23,29,8,8,17,4,9,12,30,12,4,4,4,9,13,4,16,15,16,16,20,16,16,21,16,12,16,16,18,0,14,4,8,20,24,20,16,16,12,16,21,17,9,9,16,19,23,24,24,20,16,8,8,16,12,8,3,8,14,9,3,12,17,16,11,12,0,8,7,12,7,8,3,12,8,8,12,12,12,8,20,28,24,20,11,20,19,37,27,27,28,23,32,41,35,40,45,41,29,21,17,23,36,31,33,26,100,100,100,100,100,100,100,100,100,100,100,100,100,100,94,69,100,80,100,100,100,83,100,100,100,100,92,75,100,100,100,100,100,100,60,100,27,44,100,100,89,100,64,73,97,53,45,26,76,91,100,60,30,51,100,100,100,74,67,35,100,40,100,12,21,50,43,47,51,55,55,100,65,49,32,52,100,100,100,90,74,36,32,49,36,36,49,32,8,21,66,67,79,39,52,51,47,52,45,28,24,29,67,100,100,100,100,100,61,92,100,100,25,20,100,100,100,100,100,100,100,100,31,37,36,35,35,36,46,32,40,36,23,28,27,24,12,8,16,25,100,25,16,9,100,100,100,0,0,0,0
0,0,0,0,0,0,0,0,100,100,100,0,4,3,4,4,12,12,9,4,9,4,4,9,4,0,4,8,8,4,4,4,9,8,3,12,12,8,4,8,12,4,0,9,9,0,0,9,0,0,0,0,0,4,8,4,0,4,12,8,9,9,8,4,3,4,0,4,4,0,9,0,0,0,4,8,8,4,4,8,8,13,4,0,4,3,8,8,4,4,3,4,4,9,4,0,0,0,0,4,13,9,4,0,0,0,4,8,4,0,0,0,0,4,8,3,8,8,4,4,12,12,12,0,12,12,8,8,8,12,21,15,7,29,73,98,75,52,28,33,36,27,20,13,33,36,36,40,47,69,63,67,76,67,63,55,43,31,40,39,52,52,52,39,36,23,20,16,16,16,25,24,29,24,20,20,24,24,20,16,16,8,4,0,0,0,0,4,8,8,3,8,8,4,4,8,13,4,9,8,21,20,28,24,16,12,15,24,29,32,35,52,55,51,47,56,56,52,51,55,60,63,67,67,64,50,50,56,56,47,43,35,45,44,43,48,43,48,48,44,35,35,35,39,52,47,43,43,39,45,31,27,32,27,32,27,32,23,27,36,27,32,28,38,25,12,29,32,27,28,20,20,12,16,27,32,33,24,12,3,13,8,8,12,8,9,4,4,4,4,0,9,8,4,4,8,9,4,0,0,4,4,4,17,21,7,9,0,4,8,4,0,4,8,12,12,13,8,8,16,21,4,16,24,20,12,8,12,4,0,0,4,4,7,20,25,20,20,25,3,12,20,16,12,9,0,0,0,0,4,4,3,4,4,4,4,3,4,0,4,8,12,11,12,12,16,20,11,16,20,19,24,23,23,19,28,33,20,20,19,24,23,24,20,20,29,20,20,16,12,12,12,11,25,28,33,16,17,8,3,8,4,4,17,3,3,8,9,3,12,7,9,4,4,8,9,0,4,9,7,28,31,29,8,8,16,72,58,60,8,8,0,4,4,4,4,13,8,8,8,4,4,8,8,9,9,8,4,4,0,4,13,9,9,8,12,12,12,12,12,4,4,8,7,16,16,20,28,28,24,23,27,32,32,31,36,32,29,19,27,23,24,19,29,32,35,43,39,35,39,39,43,52,51,63,67,59,55,55,60,51,50,59,67,74,83,78,95,100,99,94,98,100,100,94,79,84,78,75,63,65,40,28,28,27,27,32,27,28,24,24,15,11,9,4,12,16,17,4,4,0,0,4,4,0,13,12,16,16,12,8,11,16,11,16,20,12,12,3,8,4,4,8,17,7,12,12,12,12,12,12,12,16,11,7,16,20,25,20,24,24,16,16,24,32,28,16,8,16,20,29,24,21,17,19,27,43,59,51,36,41,23,23,32,28,28,11,18,4,8,8,32,4,9,12,26,3,13,8,8,13,8,11,16,12,3,17,11,8,8,12,4,8,16,20,19,25,12,20,24,20,16,16,24,20,15,20,11,13,8,20,20,20,16,8,18,3,8,12,8,4,12,16,0,16,16,8,8,17,17,17,12,3,8,4,4,9,8,0,8,8,9,8,8,12,4,8,12,16,16,16,24,27,36,41,31,40,45,44,39,35,43,47,39,41,23,29,18,21,16,12,20,20,100,100,100,100,100,100,100,100,100,100,67,100,100,100,100,100,100,100,100,100,100,57,100,82,100,78,100,100,100,100,100,98,96,69,83,39,45,100,55,47,39,90,25,63,100,100,100,53,73,96,91,48,68,79,79,100,100,51,100,100,100,100,100,100,100,100,100,100,43,86,79,91,61,66,43,83,80,100,20,44,28,0,32,48,33,26,50,61,40,100,100,100,48,47,53,45,27,37,36,35,44,43,100,100,100,100,31,98,74,100,100,100,100,46,100,93,100,100,100,63,47,39,36,39,43,49,49,44,49,40,32,32,24,16,12,21,4,30,59,60,58,17,17,100,100,100,100,0,0,0
0,0,0,0,0,0,0,0,100,100,0,0,4,13,4,4,4,4,12,12,12,4,4,9,13,4,0,4,8,4,4,4,13,9,0,9,3,4,4,9,9,4,4,8,8,4,4,3,4,0,0,0,0,0,4,4,4,8,8,12,12,4,4,9,12,8,4,4,4,4,3,4,0,0,4,12,12,4,4,9,4,4,4,0,4,12,12,4,0,0,0,4,8,8,8,8,3,4,4,8,8,13,4,0,0,0,4,8,12,8,4,0,0,4,8,4,0,0,0,4,8,8,9,0,9,8,4,13,4,0,9,13,39,47,90,90,83,56,43,48,57,53,27,16,26,37,31,40,45,44,47,59,71,71,58,51,47,56,56,47,52,52,39,31,32,44,49,32,32,24,15,19,28,28,23,20,11,20,24,20,20,16,16,8,4,0,0,8,16,15,20,12,4,0,0,4,12,16,25,28,41,27,23,24,16,16,16,20,28,41,39,43,51,50,55,56,51,64,59,72,76,66,67,56,44,44,53,35,36,37,36,27,28,27,44,43,35,31,32,31,40,39,35,36,45,43,43,40,23,24,20,23,27,24,25,16,16,15,28,27,32,33,33,32,23,25,21,21,16,16,20,24,20,20,20,12,3,13,4,4,9,8,8,13,9,4,4,4,4,4,8,9,0,4,8,8,9,4,4,3,9,4,4,4,4,4,3,4,4,8,4,0,0,4,4,4,8,0,12,12,11,8,17,24,23,20,3,4,4,0,4,8,12,16,20,21,12,25,25,8,4,12,24,25,21,17,12,8,3,8,12,8,0,8,4,4,13,4,0,0,4,12,12,12,12,8,8,8,8,12,21,7,21,15,16,12,8,11,15,16,12,16,20,16,20,20,20,11,13,9,8,12,8,9,4,8,3,8,4,4,8,4,4,3,4,4,12,21,16,12,12,7,17,8,4,4,4,0,9,12,12,54,12,16,12,7,17,8,8,12,12,8,13,8,8,12,9,9,12,12,4,0,0,0,4,13,3,8,4,0,4,9,9,8,4,7,12,3,4,3,4,4,8,12,11,16,25,24,28,23,23,23,32,36,27,28,28,32,36,40,40,31,36,40,44,40,39,44,31,32,32,40,47,51,50,61,52,47,51,51,64,59,66,87,99,94,99,94,94,90,90,99,100,100,76,58,64,73,55,60,50,43,45,27,36,27,23,28,23,32,23,28,32,33,26,4,13,8,8,9,0,0,4,4,4,3,9,8,12,7,7,12,16,16,16,16,12,8,13,7,21,12,4,4,12,16,15,16,12,12,16,16,11,16,16,16,16,16,16,16,20,20,24,20,16,12,17,9,17,17,7,26,18,12,23,36,39,53,45,12,13,9,18,18,12,21,25,16,8,9,22,12,21,18,21,20,7,18,9,9,8,12,12,12,4,4,17,21,21,16,16,12,9,3,12,25,20,16,16,16,20,32,45,36,32,24,16,7,17,4,21,16,12,12,17,4,13,16,11,3,4,9,22,12,7,16,16,12,12,15,24,16,8,4,4,4,8,9,4,0,4,13,4,9,9,12,12,16,20,28,23,27,32,24,23,39,50,60,47,40,35,48,47,48,45,36,35,31,29,8,12,20,20,16,12,100,100,100,100,100,100,100,100,100,100,100,100,100,100,100,100,100,100,100,100,100,61,68,100,100,86,100,100,100,100,100,100,86,39,92,56,100,100,100,100,100,51,100,100,100,100,100,84,100,100,100,72,41,100,100,100,43,52,81,100,100,100,100,43,100,100,100,100,100,100,74,85,72,68,100,74,100,76,68,100,62,62,8,65,62,59,76,52,100,57,53,32,16,24,32,32,35,47,47,55,100,100,100,65,100,100,100,100,100,100,100,100,100,100,100,95,59,40,27,40,44,43,43,60,47,54,31,32,24,24,21,8,9,18,3,25,8,8,8,14,13,3,100,100,100,0,0,0
0,0,0,0,0,0,0,0,100,100,0,0,4,9,8,9,4,4,9,8,4,4,4,13,9,4,0,0,4,8,4,4,8,7,7,17,12,8,4,8,4,4,0,0,0,0,0,0,0,0,0,4,3,3,8,12,12,12,12,12,8,8,8,9,9,8,8,4,8,8,4,0,0,0,4,4,4,4,4,9,12,12,4,0,4,9,4,4,0,0,0,4,8,8,8,12,12,4,4,9,4,4,4,0,0,0,0,4,8,12,12,8,0,8,12,4,0,0,0,0,0,0,4,4,12,8,9,9,51,47,65,38,61,60,49,29,11,27,55,68,47,50,17,17,16,28,36,31,35,45,40,40,49,48,52,47,47,59,58,60,48,44,39,57,52,56,52,35,31,27,28,28,28,28,23,15,12,16,20,20,16,16,16,15,29,29,29,25,16,20,24,16,8,0,4,13,25,37,44,39,39,36,32,23,20,20,20,37,39,47,52,52,52,51,60,55,54,71,70,70,67,56,58,40,27,23,27,32,28,29,28,36,31,32,36,36,35,40,40,35,48,47,43,49,32,32,31,36,41,32,37,32,23,20,12,7,12,16,20,24,15,16,20,20,23,20,8,3,4,12,16,20,15,16,8,0,4,9,4,4,9,9,8,12,8,8,8,4,4,4,12,8,4,0,4,9,8,4,0,9,4,4,4,8,9,4,8,12,12,8,4,0,4,8,4,4,4,4,8,12,7,8,4,17,21,12,8,3,8,4,0,4,8,7,17,8,12,16,20,25,12,12,24,32,23,20,16,12,0,4,8,12,4,4,9,8,9,4,0,0,4,8,4,8,7,7,12,8,13,4,9,13,8,11,20,11,12,12,16,12,12,8,3,3,4,9,12,8,9,9,8,3,4,4,3,8,3,8,12,7,7,12,12,8,4,0,8,16,16,11,11,16,11,12,7,7,12,12,11,7,12,20,13,16,8,8,8,12,8,26,23,13,16,16,16,7,8,13,4,26,24,21,4,8,12,16,12,8,4,0,4,9,9,9,8,12,12,8,4,0,0,0,4,4,9,12,16,4,12,16,20,19,20,29,24,19,28,41,36,41,36,31,27,36,39,43,44,36,27,28,29,23,31,43,43,47,60,51,56,59,62,67,70,93,98,88,87,86,90,90,86,82,79,63,59,55,48,35,43,43,39,43,57,35,36,32,28,20,16,16,15,28,33,24,20,12,4,4,9,4,0,0,4,9,8,7,3,8,12,12,8,3,12,12,12,12,11,16,21,16,20,16,12,3,8,12,12,12,12,12,12,12,12,16,12,8,8,8,4,4,17,16,20,20,16,20,20,38,33,29,23,46,45,35,40,35,28,21,13,18,8,16,20,23,28,32,24,16,12,16,16,12,8,8,12,8,12,16,16,8,8,12,3,4,0,3,16,23,23,20,16,11,30,16,21,21,17,4,7,25,24,36,49,35,31,27,28,24,21,8,13,9,12,12,16,20,33,20,12,8,8,20,24,15,12,8,17,8,12,7,17,12,9,4,8,3,8,7,12,12,7,8,8,7,16,20,20,24,20,20,28,28,28,32,31,36,53,52,43,48,48,43,47,56,47,39,27,37,32,32,42,42,42,29,17,3,12,16,29,58,96,100,100,100,100,100,100,100,100,100,100,100,100,100,100,100,100,56,100,100,100,100,46,59,86,100,100,100,100,100,81,100,61,42,100,45,86,60,73,90,74,85,100,100,61,100,65,63,44,71,58,100,93,67,36,88,79,22,100,47,100,89,100,100,100,100,66,58,56,43,77,100,72,91,100,100,60,100,100,100,100,37,56,61,59,36,28,33,27,40,40,43,51,80,100,100,94,64,47,26,66,100,100,100,100,100,100,100,100,100,100,61,40,32,32,35,39,47,55,39,29,7,12,11,11,8,12,4,8,9,25,16,8,7,21,74,100,100,100,100,0,0,0
0,0,0,0,0,0,0,0,100,100,100,0,4,9,4,8,4,4,9,12,12,4,4,3,8,8,4,0,4,8,7,12,12,12,12,7,12,12,9,4,8,8,4,4,8,12,12,12,12,12,8,8,13,4,4,8,8,4,0,0,0,0,4,13,4,8,4,9,8,12,8,4,0,0,4,8,9,4,4,9,9,8,4,0,4,8,4,0,0,0,0,4,8,8,4,4,9,4,4,9,13,4,0,0,0,0,0,0,0,4,8,12,4,9,8,4,0,0,0,0,0,4,8,0,3,4,4,9,8,100,50,70,55,58,41,20,29,27,53,71,54,49,21,28,32,37,41,31,31,31,35,31,32,23,32,43,51,51,65,56,56,43,43,56,47,39,39,48,40,40,31,27,28,28,28,24,20,12,12,16,20,24,24,23,31,44,35,27,16,12,16,16,21,16,16,17,21,23,44,47,43,31,23,23,32,36,36,40,43,43,56,52,52,47,51,47,47,61,61,57,43,36,27,36,40,32,27,39,47,52,39,39,35,40,36,40,44,49,40,35,35,49,44,39,31,28,28,40,40,35,31,32,28,15,12,12,16,15,16,16,15,23,23,20,20,12,7,16,25,24,15,16,8,4,3,0,8,9,4,4,17,7,12,8,4,4,4,4,12,12,4,3,4,4,8,9,4,0,4,3,8,8,3,8,12,3,12,16,7,4,0,0,0,4,12,12,4,0,0,3,12,3,4,8,12,25,16,12,7,8,4,0,0,4,13,0,12,16,20,16,12,8,4,25,23,28,16,3,4,9,0,4,4,8,8,9,9,4,0,0,4,9,3,4,0,9,12,17,12,8,8,8,7,12,12,25,17,3,13,3,8,12,8,3,4,8,8,4,12,8,9,4,8,3,12,7,17,12,16,16,16,11,12,12,4,0,0,4,8,12,12,7,8,8,12,16,11,12,12,4,0,9,3,8,12,8,8,12,7,4,60,7,8,8,17,4,4,3,4,4,64,16,16,12,12,12,7,7,8,8,8,8,12,8,13,8,9,4,0,0,4,8,7,7,7,16,21,3,4,8,8,21,11,8,12,23,31,27,19,24,23,28,23,32,35,35,36,27,31,31,36,32,32,36,35,47,51,51,51,56,63,62,64,57,52,60,76,79,82,83,75,72,77,68,59,51,35,40,48,43,43,47,51,39,23,20,20,16,16,24,20,16,16,29,16,12,12,8,4,9,0,0,4,12,12,12,0,12,12,8,4,4,12,12,9,9,13,8,12,12,12,16,16,16,12,8,4,4,8,7,7,7,8,8,8,12,7,7,8,4,8,11,24,24,24,28,36,35,40,35,40,43,44,46,38,35,9,12,12,0,0,3,12,20,25,12,8,12,21,21,12,4,13,3,9,7,8,4,13,4,8,12,0,17,16,21,16,16,12,12,20,31,40,31,36,27,20,17,12,20,20,20,20,24,23,23,23,19,20,21,8,4,16,16,11,20,25,21,8,11,20,16,11,16,16,3,12,3,0,0,4,4,21,20,24,24,20,20,16,12,12,8,8,12,16,11,21,21,8,12,20,31,31,32,37,28,27,35,48,47,39,44,44,39,39,39,40,32,36,48,47,43,52,47,49,41,36,32,32,24,20,24,40,100,100,100,100,100,100,100,100,100,100,100,100,100,100,100,100,100,43,100,49,100,100,100,100,100,100,100,100,92,100,100,100,100,100,100,100,100,43,18,48,11,35,24,42,63,56,37,51,43,100,90,65,41,79,49,64,100,33,100,4,49,100,47,40,47,55,63,71,93,75,63,70,39,83,98,100,100,100,70,20,28,20,29,24,27,27,27,35,48,52,93,100,100,92,50,88,100,100,100,100,100,100,100,83,100,100,53,56,23,15,28,32,37,31,44,54,23,20,30,29,15,21,8,8,12,25,20,12,7,20,15,11,43,100,100,100,100,100,0,0
0,0,0,0,0,0,0,0,100,100,4,0,4,4,4,0,4,4,13,4,4,12,8,4,4,8,8,3,4,4,12,12,16,11,3,4,4,8,17,8,8,8,12,12,12,12,12,12,12,12,12,4,13,4,0,0,0,0,0,0,0,0,4,3,4,8,9,9,4,4,4,0,0,0,4,8,12,4,4,9,12,8,4,0,4,8,4,0,0,0,0,4,8,12,12,4,4,4,4,9,9,4,0,0,0,4,8,12,8,4,0,4,8,7,12,12,12,8,0,8,12,12,8,21,19,17,8,4,52,35,57,67,56,23,30,20,28,24,18,43,52,56,20,23,37,23,27,40,39,35,31,35,35,40,40,40,49,35,39,43,47,51,61,47,51,47,48,47,47,48,40,36,32,28,28,32,32,32,23,19,23,23,28,28,23,37,31,31,36,33,32,27,41,23,20,25,20,37,35,44,43,43,49,40,39,43,52,52,47,52,52,43,40,35,49,43,39,36,41,31,39,44,35,44,43,44,40,40,53,47,47,47,47,61,47,51,43,40,36,35,35,31,31,27,28,19,20,19,32,23,15,12,13,8,12,11,12,12,16,8,12,21,16,11,12,12,12,16,20,25,9,8,8,8,12,4,9,13,4,3,7,12,12,12,8,4,4,4,8,8,4,9,0,0,4,9,4,0,0,0,4,4,0,4,8,8,4,9,0,4,8,12,8,4,8,8,4,0,0,4,17,12,12,14,16,19,23,24,20,16,12,4,0,4,0,4,4,12,16,25,20,7,4,13,20,24,16,12,16,12,3,4,4,4,9,8,8,4,4,3,8,8,13,3,9,4,4,8,4,8,3,8,7,7,12,12,16,12,9,4,0,4,9,13,4,4,4,4,3,0,8,3,8,12,11,16,16,15,15,20,16,12,12,7,17,12,12,12,12,8,3,8,3,12,16,11,12,8,3,8,3,3,4,4,3,3,8,12,12,29,36,38,12,12,9,4,0,4,17,13,33,47,12,7,8,4,4,12,12,12,8,9,4,0,4,0,4,8,4,0,4,13,3,8,4,8,17,3,4,8,17,8,8,12,12,20,28,28,28,23,28,20,15,20,38,28,27,36,40,35,36,31,32,24,32,35,44,43,47,43,48,57,39,39,43,43,56,60,72,71,67,59,47,61,43,44,44,44,45,27,36,40,40,36,36,32,28,33,24,24,25,16,24,23,24,25,20,20,20,21,8,4,4,3,4,8,4,4,0,0,0,4,8,12,12,12,4,12,7,7,12,17,12,7,12,12,12,8,8,8,12,12,12,12,7,7,12,3,8,4,4,16,24,37,32,23,20,24,31,40,27,29,20,13,29,23,12,8,18,9,4,9,4,21,25,12,8,13,8,8,16,8,3,16,21,27,13,12,12,3,9,8,3,7,26,3,9,9,4,12,20,38,32,27,36,32,16,12,12,8,0,12,12,15,23,24,11,16,21,8,3,12,16,16,12,0,12,8,8,16,16,12,17,12,12,8,13,9,9,4,4,8,20,24,29,23,27,27,23,25,24,32,37,24,20,17,4,8,11,29,19,41,35,40,32,32,36,45,39,43,44,36,36,39,43,52,47,43,49,44,39,48,39,47,51,51,48,39,36,32,28,28,29,15,23,100,100,100,100,100,100,100,100,100,100,100,100,100,100,100,100,100,100,100,100,100,100,100,100,100,100,100,100,100,100,100,62,100,100,100,48,4,84,100,100,100,100,74,40,56,90,100,83,21,60,70,23,67,47,100,100,92,44,25,37,89,100,81,59,60,64,63,59,47,40,36,32,27,94,100,39,69,100,28,37,28,33,28,32,40,39,40,36,55,100,81,100,100,100,92,100,100,100,100,100,100,100,100,24,100,25,20,41,31,32,11,15,32,32,42,23,37,42,16,12,29,20,16,18,29,22,16,12,18,17,61,100,100,100,100,100,0,0
0,0,0,0,0,0,0,100,100,100,100,8,8,8,3,9,0,4,3,4,4,8,12,4,4,8,12,8,8,12,8,8,12,12,8,12,12,16,16,12,12,12,11,12,8,8,8,8,4,0,4,9,3,4,0,0,0,0,0,0,0,4,3,4,4,8,9,9,4,4,8,4,0,0,0,4,3,3,8,8,3,4,0,0,0,4,4,0,0,0,4,3,4,3,8,12,12,4,4,9,13,4,0,0,0,0,9,13,9,4,3,4,8,4,4,12,12,9,4,13,9,8,4,0,47,4,48,44,60,38,45,63,41,16,21,20,24,13,23,51,68,57,32,37,41,31,35,48,43,35,31,35,39,39,39,35,40,31,32,36,44,57,50,55,56,47,43,51,55,60,48,47,47,35,32,40,40,31,27,27,27,36,36,40,32,23,27,35,39,48,47,56,65,48,41,41,44,39,44,39,43,48,47,47,47,60,63,68,55,48,40,36,31,36,31,39,52,47,52,43,43,43,43,43,43,47,39,36,27,35,48,43,47,51,57,43,44,35,40,31,40,31,32,23,32,28,20,20,33,23,20,8,9,12,20,15,12,4,13,8,4,4,8,12,12,4,4,4,4,12,12,12,12,8,9,8,11,11,3,4,9,8,12,8,9,4,4,0,0,0,3,7,3,4,8,9,4,0,0,0,0,9,8,4,0,4,4,3,4,4,12,12,8,3,4,0,0,0,0,4,13,8,15,24,12,12,25,28,27,19,16,16,8,4,9,4,8,7,16,24,24,16,16,16,9,13,8,11,16,12,4,4,8,3,3,4,4,0,0,9,4,4,3,9,4,8,4,8,9,4,4,8,4,9,8,8,8,8,8,8,4,4,13,9,4,4,9,8,12,8,3,12,7,7,12,12,11,12,12,17,8,3,8,16,16,16,12,12,12,12,8,3,12,16,12,7,7,8,3,8,12,8,4,4,8,16,12,3,3,11,11,7,11,11,8,12,12,12,12,41,23,30,12,12,9,0,4,4,4,3,4,9,9,4,8,4,8,4,8,8,3,13,4,4,4,8,16,16,16,16,12,3,3,11,11,8,16,24,23,20,20,16,7,4,12,12,28,31,49,48,52,48,35,50,27,27,32,35,43,43,27,28,27,44,52,52,47,43,47,55,72,63,50,53,40,40,35,31,32,37,32,31,44,44,35,35,36,31,23,11,12,21,11,20,27,27,28,23,23,32,19,29,16,12,4,8,8,3,8,12,8,4,0,0,4,8,8,8,12,4,4,8,0,8,4,4,8,12,12,7,8,8,12,12,12,4,4,4,4,9,3,4,9,22,16,26,12,8,16,30,16,8,12,24,23,25,4,21,21,21,16,12,12,16,20,16,16,16,8,13,9,13,4,8,21,20,12,9,17,9,8,8,4,3,21,21,12,12,4,7,17,4,4,16,30,16,11,11,16,15,20,25,9,17,21,16,12,12,9,9,13,3,12,8,4,4,4,9,3,4,4,7,12,3,0,9,8,3,3,8,8,12,17,8,8,12,20,29,28,41,35,48,43,45,27,33,24,20,20,28,23,29,28,41,32,32,32,36,48,51,60,60,39,39,43,51,50,68,72,64,60,60,47,43,47,47,56,47,44,41,36,39,40,19,12,16,33,49,100,100,100,100,100,100,100,100,100,100,100,100,100,100,100,100,100,83,95,100,100,100,100,85,100,100,100,56,100,100,100,100,100,100,33,100,100,100,100,100,73,67,100,100,100,100,100,56,71,48,61,61,100,85,58,78,52,79,100,90,51,49,44,48,43,47,60,51,48,49,44,27,16,45,67,74,36,31,35,44,35,36,40,40,40,32,49,35,100,100,100,100,100,71,100,100,100,100,100,100,100,98,87,36,44,48,35,51,41,36,45,35,36,24,17,8,16,29,24,25,21,73,16,17,4,7,13,20,53,25,51,100,100,0,0
0,0,0,0,0,0,0,0,100,100,8,12,8,4,4,8,8,4,0,0,0,0,4,8,8,17,8,8,8,8,17,12,4,4,9,8,8,8,12,12,12,12,12,12,12,12,12,12,4,0,4,9,3,4,0,4,3,4,4,3,8,8,12,4,4,8,12,8,12,12,4,0,0,0,4,8,8,8,8,4,0,0,0,0,4,8,8,0,8,8,8,12,8,4,4,8,8,4,4,13,8,12,12,12,8,8,12,16,7,7,12,8,9,4,13,4,4,9,8,20,16,12,8,18,16,17,9,92,7,8,9,36,21,8,9,4,18,30,32,56,50,52,45,36,40,39,39,45,36,36,31,31,40,31,31,35,48,35,45,35,31,23,36,45,40,43,43,47,60,55,56,51,52,52,52,56,43,36,36,31,31,40,43,43,40,32,27,31,47,55,47,52,59,71,81,81,72,59,56,47,43,43,52,68,71,76,67,60,48,35,40,40,43,52,60,59,58,54,56,47,43,47,52,39,53,43,43,44,35,31,35,40,35,36,27,31,40,39,44,31,23,24,20,19,32,27,19,12,22,21,12,12,21,16,21,13,4,4,8,4,0,4,8,4,4,13,4,4,3,7,3,3,12,7,3,12,12,12,8,4,9,8,8,12,12,4,9,12,8,8,8,12,4,0,9,13,4,0,0,0,4,8,12,4,4,8,4,0,0,4,8,8,8,9,0,0,0,0,0,4,3,4,16,23,19,16,8,20,32,28,23,24,16,12,7,4,12,12,7,12,20,28,28,23,25,13,21,23,28,24,25,16,11,16,7,8,4,0,4,3,9,4,4,3,8,12,12,4,4,4,4,9,8,8,4,4,3,4,4,4,0,4,3,8,8,4,12,12,12,12,3,8,12,4,4,8,12,12,8,3,12,25,20,12,7,12,4,0,0,4,8,8,12,12,12,12,11,12,17,12,11,12,12,12,12,7,17,12,12,12,12,12,12,12,12,16,16,12,33,31,67,4,3,4,4,4,4,4,0,0,4,4,8,8,4,0,9,12,12,12,3,3,4,4,8,8,9,8,21,8,8,4,8,16,15,25,16,16,15,16,16,12,8,13,18,4,17,20,38,40,52,47,48,48,39,31,36,40,44,36,28,23,23,24,37,45,47,52,47,51,64,64,48,35,43,47,35,32,36,43,58,39,52,51,43,40,31,32,27,29,24,36,36,32,32,20,16,20,27,49,60,82,47,37,12,4,8,7,12,12,12,4,0,0,4,8,4,3,9,4,4,9,3,8,4,0,0,4,3,3,12,12,12,12,7,12,4,4,4,12,12,0,8,12,12,12,8,9,8,7,8,13,21,12,18,13,8,3,7,29,23,20,12,8,3,8,18,0,9,8,26,9,4,3,7,21,8,4,14,14,9,12,7,12,12,12,16,15,20,29,43,24,16,16,13,3,12,12,12,20,24,24,12,4,4,3,12,17,3,12,17,4,4,4,8,12,12,8,4,4,4,12,12,12,4,4,9,17,20,25,16,17,7,25,15,16,16,24,36,48,39,36,41,32,32,27,27,28,20,24,23,32,24,20,41,53,43,48,52,51,56,57,35,35,43,52,47,60,77,67,59,54,54,60,51,51,51,56,56,56,48,40,36,32,34,16,16,15,32,40,74,100,100,100,100,100,100,100,100,100,100,100,100,83,100,89,100,100,100,100,100,100,100,100,100,100,100,100,100,100,100,100,100,100,100,100,100,100,100,86,77,82,100,100,100,61,45,100,100,100,46,60,35,52,100,79,67,63,61,35,40,43,48,55,38,62,60,56,43,45,29,100,100,100,36,41,31,39,40,41,100,100,100,25,32,28,87,49,28,100,100,79,100,100,100,100,100,100,100,100,44,36,35,40,39,61,43,45,37,23,20,4,9,8,8,8,17,20,51,36,40,18,3,8,9,17,9,18,32,100,100,0,0
0,0,0,0,0,0,0,100,100,100,4,3,4,0,0,4,13,4,0,0,0,0,4,8,12,9,4,3,4,13,9,3,4,4,13,4,0,4,13,4,4,8,7,8,9,0,4,4,8,4,4,12,12,8,4,0,9,0,4,13,8,8,9,4,4,4,4,9,4,4,4,0,0,0,4,12,12,12,3,8,8,4,0,0,0,4,8,4,9,9,4,13,9,0,0,0,0,0,4,8,12,12,8,12,12,12,16,20,16,7,8,11,25,12,9,4,4,9,8,8,12,7,12,12,12,3,44,35,47,29,44,79,78,73,75,63,52,70,48,47,76,100,90,55,52,40,36,27,36,36,28,20,20,23,31,35,36,35,48,49,32,28,15,20,28,36,31,39,43,47,64,50,51,55,64,51,52,48,57,51,61,39,32,32,35,43,49,43,47,61,43,52,55,75,82,87,70,67,68,51,47,55,63,67,68,64,56,39,40,39,43,47,43,51,60,64,64,59,60,51,56,47,44,49,39,43,40,31,31,31,27,32,31,27,27,31,32,32,32,28,15,16,15,28,23,23,20,8,7,12,8,12,16,9,12,12,9,4,0,4,4,0,4,4,8,9,4,9,12,12,4,4,13,9,4,3,4,4,9,8,4,9,8,8,4,0,8,12,12,12,8,9,4,4,8,8,4,8,8,8,8,8,4,8,8,8,4,0,0,4,8,9,9,3,4,0,0,0,4,8,12,3,13,16,25,16,8,13,21,20,28,32,19,25,12,4,4,4,8,3,17,20,27,27,19,12,12,29,36,31,23,15,16,8,9,4,4,4,3,4,4,4,0,0,4,8,8,4,4,8,3,12,12,3,8,8,12,8,8,8,3,8,8,9,4,4,3,4,4,8,4,0,4,8,8,3,3,8,9,3,16,20,25,12,12,7,12,4,0,0,4,12,12,4,4,8,17,12,11,12,12,12,16,16,12,17,12,16,16,12,12,16,16,16,16,12,12,20,16,42,40,33,8,3,8,12,12,4,0,0,0,13,8,8,4,4,8,8,4,4,4,0,0,4,4,9,4,4,9,8,3,17,25,20,23,23,15,16,16,16,12,7,17,12,11,12,7,16,20,31,40,36,32,36,40,39,48,40,32,32,36,31,23,24,20,28,35,52,47,40,54,62,48,44,45,50,23,33,32,49,43,39,40,45,40,44,39,40,35,48,52,39,40,28,29,25,25,37,52,72,74,93,69,36,24,12,12,9,4,0,4,4,4,4,4,9,8,12,12,3,8,4,9,8,17,8,4,4,8,12,8,3,8,12,16,8,4,4,4,0,9,0,4,12,8,8,8,8,12,12,16,12,18,12,8,8,17,12,21,25,34,20,11,8,9,12,12,30,21,13,13,21,26,16,16,12,8,8,13,21,8,8,16,12,0,4,17,21,28,35,39,31,28,19,16,13,12,12,8,13,4,9,8,16,28,37,19,16,4,4,4,8,7,16,16,7,4,0,4,13,9,12,17,7,8,3,17,16,24,20,16,17,11,29,24,32,36,40,48,43,40,32,23,16,8,17,15,23,36,49,36,41,32,40,51,55,52,47,43,43,43,44,57,52,43,44,48,43,43,47,59,60,59,63,59,56,56,51,52,52,49,32,27,36,36,32,24,28,28,32,37,32,36,31,49,52,75,100,100,100,100,100,100,100,100,100,100,100,100,100,100,100,100,100,100,100,100,100,100,100,100,100,100,100,100,100,100,100,91,61,33,100,100,100,87,100,88,100,100,100,72,93,100,50,61,61,45,17,39,28,27,45,39,43,100,56,55,55,78,83,100,70,100,39,39,36,36,41,35,44,35,100,100,100,48,56,81,53,100,40,100,78,100,100,100,100,100,100,100,28,29,37,36,35,48,51,48,32,24,15,16,26,13,3,8,7,4,16,29,15,16,3,4,17,12,31,21,20,35,100,100,0,0
0,0,0,0,0,0,0,0,100,100,0,0,0,0,0,4,9,12,8,8,8,12,8,3,3,9,4,0,4,9,13,4,0,4,3,4,0,4,9,4,4,13,9,0,0,9,4,8,7,8,3,3,8,8,12,7,8,4,4,13,8,8,9,9,8,12,12,12,12,12,8,3,4,0,4,9,4,4,4,9,13,4,0,0,0,0,4,8,12,7,8,11,11,3,4,8,8,4,0,4,8,12,12,4,3,7,7,11,21,8,8,16,16,12,8,8,4,13,4,8,12,0,3,4,4,12,16,12,4,36,13,70,83,98,100,100,100,100,100,100,100,100,100,75,61,34,4,21,45,27,13,24,24,12,32,40,40,39,44,36,23,28,27,41,32,24,19,32,36,49,47,61,51,51,43,43,52,56,68,73,55,47,57,57,57,51,55,51,43,39,43,43,51,71,78,83,75,67,65,51,51,51,60,47,48,47,47,43,48,44,40,44,48,43,39,40,44,52,51,52,39,40,36,31,41,37,28,19,15,29,28,23,33,20,25,21,13,12,12,15,24,24,15,20,29,21,8,8,21,16,16,16,12,8,17,16,11,16,7,8,4,4,12,12,8,8,12,16,11,8,4,4,9,8,4,3,4,4,13,8,8,12,12,12,4,0,0,0,4,3,4,4,4,0,0,0,0,9,9,4,12,12,9,4,4,8,4,0,0,4,4,9,4,4,3,4,4,3,12,16,12,13,8,4,8,11,16,17,9,8,20,32,27,24,11,8,9,4,8,4,4,8,25,28,23,29,11,9,30,29,15,7,3,12,17,16,21,16,12,12,7,17,12,8,4,4,3,4,4,8,3,3,9,4,8,12,9,4,4,4,4,12,12,12,8,4,0,0,0,4,4,0,4,8,12,12,8,4,9,12,12,4,4,12,16,20,12,8,8,29,31,33,8,12,12,8,3,8,7,12,12,16,16,11,16,20,20,15,15,15,15,15,15,25,11,20,24,19,20,20,20,16,12,8,8,7,8,4,0,0,3,12,12,4,0,4,8,8,4,4,4,0,0,4,8,8,8,8,8,11,24,28,19,20,25,20,28,32,23,15,12,16,20,25,25,24,23,32,31,43,51,57,53,58,48,47,39,32,31,52,47,35,27,23,24,24,28,50,40,31,23,46,49,35,31,23,38,29,19,32,49,35,28,28,36,35,44,43,61,56,43,32,15,20,20,32,57,77,75,70,69,58,48,53,36,16,12,11,16,12,8,9,13,0,4,12,7,12,12,8,4,9,4,12,11,12,8,8,12,11,7,8,8,12,3,8,17,9,4,12,17,12,12,12,8,17,7,7,16,15,16,9,8,17,4,13,9,8,15,38,16,11,16,18,4,8,25,19,33,20,12,16,21,21,12,25,21,8,13,12,7,4,4,13,13,4,4,4,9,21,29,23,28,23,33,29,16,11,20,16,8,3,12,33,45,36,29,17,4,16,12,12,13,8,17,12,8,4,4,14,3,12,8,12,16,20,20,12,7,12,20,41,41,23,32,36,39,43,48,43,43,48,36,20,26,25,36,39,56,55,51,43,47,60,55,51,51,43,39,52,43,47,51,52,35,31,39,52,52,47,64,68,63,63,63,76,67,55,39,44,49,44,35,40,44,36,27,28,29,20,25,24,28,19,20,16,12,21,12,12,16,20,100,100,100,100,100,100,100,100,100,100,100,100,100,100,100,100,21,100,100,100,100,100,100,100,100,100,100,100,100,100,100,49,100,100,100,83,100,100,100,100,100,100,100,31,48,71,19,50,28,66,100,100,100,100,100,100,91,100,100,41,80,58,57,51,100,79,96,43,100,100,100,24,23,30,92,100,100,100,35,100,100,100,100,100,100,100,100,20,20,29,37,31,39,49,33,21,17,16,20,32,41,24,12,23,17,24,28,25,4,17,7,11,25,74,0,27,20,100,100,100,0
0,0,0,0,0,0,0,0,100,100,100,0,4,3,4,4,9,8,12,12,12,12,12,8,4,4,8,4,4,9,0,0,0,0,0,4,0,4,9,4,4,9,8,4,8,8,4,9,4,4,0,0,4,4,8,12,4,4,8,8,8,8,12,4,8,9,4,8,4,4,9,13,4,4,8,4,9,0,4,8,12,4,0,0,0,4,8,4,12,12,12,12,12,8,4,9,13,4,0,4,12,8,8,8,4,9,4,8,8,12,8,4,0,0,4,8,9,0,9,12,8,4,0,0,4,8,12,7,8,8,100,59,92,94,100,90,100,100,100,100,100,100,79,61,41,28,76,20,30,21,0,50,37,24,28,36,35,43,40,32,27,36,40,39,40,37,20,12,20,31,43,39,43,48,48,47,55,68,58,59,72,85,75,71,71,67,67,72,67,67,59,78,64,59,83,60,65,56,49,39,48,43,39,43,47,56,43,44,39,39,40,36,35,45,36,23,19,38,38,24,23,28,28,28,29,24,24,19,43,23,31,27,15,16,3,4,13,4,0,8,25,20,12,8,4,4,12,16,20,24,20,12,12,12,20,15,20,20,16,12,12,4,12,7,4,4,8,12,12,3,12,12,9,9,8,12,8,3,3,4,4,3,4,4,4,4,3,8,8,8,4,4,8,8,3,4,4,8,8,9,4,4,12,8,9,4,0,0,4,8,8,4,4,4,13,8,8,12,17,17,0,4,4,4,4,12,16,16,17,4,12,20,28,28,20,16,25,16,7,4,8,17,8,20,28,36,27,33,24,26,4,8,16,15,24,19,23,24,11,12,20,16,12,12,12,12,12,8,8,8,17,8,4,4,4,3,4,8,9,4,4,4,4,3,4,0,0,0,4,8,8,4,0,3,7,8,8,8,11,11,8,9,7,11,12,17,12,7,12,12,59,12,3,8,12,12,12,16,24,24,15,11,16,16,12,11,16,16,15,15,15,16,7,8,20,23,23,20,20,20,15,16,12,17,12,12,12,12,12,12,12,8,4,0,0,4,12,12,4,4,4,0,4,8,3,13,3,8,7,16,20,24,16,0,8,12,28,33,29,16,12,8,11,20,23,23,28,27,31,44,67,48,52,51,52,49,36,44,56,55,53,23,20,16,11,16,15,29,31,35,31,32,36,57,50,59,69,54,24,24,46,28,23,32,40,31,32,45,39,49,36,28,29,15,28,43,81,88,76,56,49,32,46,36,28,12,8,12,11,12,12,9,8,4,7,16,12,12,12,8,9,0,4,9,8,12,16,25,7,8,13,8,8,9,4,17,16,4,8,8,12,12,7,16,16,20,17,8,12,21,8,17,8,9,21,30,11,11,17,22,13,8,21,34,16,12,8,12,16,11,16,11,31,13,8,16,12,3,13,4,12,16,8,12,20,20,16,12,18,4,8,4,26,20,24,24,11,8,13,4,4,0,9,18,18,13,9,8,12,21,8,4,9,8,12,12,16,12,8,21,12,12,8,11,20,20,24,33,28,37,40,43,35,41,31,44,39,39,44,43,47,52,43,45,58,43,40,49,43,57,48,52,55,59,55,51,55,47,45,41,35,39,35,31,31,44,52,52,47,43,50,72,72,63,62,71,63,60,60,61,52,48,48,43,39,36,28,15,11,21,12,12,24,32,28,20,12,8,11,16,12,12,12,8,4,4,4,8,11,100,100,100,100,100,100,100,100,100,100,100,100,100,100,100,100,100,100,100,100,100,100,100,100,100,100,100,100,100,99,100,100,100,100,100,100,100,100,100,100,48,37,65,100,100,100,70,100,60,25,99,61,56,57,47,51,77,33,100,42,27,56,100,100,100,61,100,80,100,100,54,29,100,100,100,100,44,100,88,16,20,28,41,28,20,29,21,13,13,12,15,32,36,40,36,12,19,28,8,30,38,24,12,9,8,44,31,21,18,41,100,100,100,0
0,0,0,0,0,0,0,0,100,100,100,0,0,9,0,4,4,0,4,3,4,0,4,8,8,3,8,8,3,12,12,3,8,12,12,17,12,8,9,4,4,9,4,4,13,4,4,8,7,8,4,0,4,13,4,4,4,4,12,8,4,4,3,9,4,4,13,4,4,8,9,9,4,0,4,9,3,4,0,4,3,4,0,0,0,0,9,13,8,7,11,12,7,7,12,4,4,4,4,4,4,0,4,4,4,3,9,4,4,3,4,4,8,8,4,4,12,12,9,4,0,4,3,8,8,8,4,4,8,41,28,91,69,72,85,100,100,98,100,95,65,18,34,20,17,38,35,38,8,12,36,75,61,49,27,19,28,41,35,35,49,43,43,40,36,40,40,41,46,43,56,51,47,51,68,54,55,60,51,55,81,80,71,54,64,64,64,64,69,69,64,63,68,43,40,53,43,44,39,48,39,39,43,47,47,43,36,27,32,32,31,31,23,20,20,23,20,7,8,16,16,20,19,27,31,37,24,27,40,37,24,29,20,16,7,12,12,4,4,12,16,8,8,11,20,24,28,32,23,24,15,16,16,12,7,7,17,7,17,12,8,4,12,8,4,0,0,4,8,4,12,7,9,9,8,9,4,8,8,8,3,4,0,4,9,8,12,4,9,9,0,4,8,12,12,8,8,8,8,8,4,4,8,8,4,4,0,0,4,8,9,4,4,8,17,4,8,8,4,13,0,8,3,12,8,4,7,11,12,9,4,3,29,27,23,15,24,20,7,0,17,16,12,16,20,23,42,28,27,32,15,4,16,23,23,28,19,24,20,20,16,16,20,16,20,20,16,16,20,16,7,12,3,12,8,4,4,8,9,4,4,4,4,3,4,0,0,0,0,4,8,8,4,4,13,4,4,9,12,12,3,12,12,12,4,8,12,16,16,14,16,13,17,12,12,12,16,20,20,25,11,20,20,20,16,11,16,16,12,12,12,12,20,20,15,20,15,16,12,12,16,20,15,16,8,7,16,12,12,12,12,3,4,3,4,4,4,4,4,4,9,8,12,7,12,12,8,4,4,4,4,13,13,4,18,7,16,12,12,16,20,29,28,33,24,19,20,20,15,25,30,28,31,31,28,27,48,56,55,65,39,49,41,37,36,23,15,20,33,41,28,20,41,43,62,65,73,66,31,38,23,49,36,41,36,27,28,27,32,32,32,32,32,37,49,55,59,67,41,28,38,24,20,16,12,17,21,7,8,4,4,9,4,4,12,12,11,16,16,7,3,4,4,4,4,8,16,20,12,4,8,8,12,12,4,4,4,9,4,4,8,8,12,20,20,16,8,9,4,17,8,8,22,11,23,27,25,18,12,34,12,9,21,16,16,11,16,16,16,12,7,26,21,9,12,12,9,3,4,8,20,24,15,12,17,9,22,22,9,13,12,13,9,9,7,11,7,8,20,15,11,16,15,46,54,54,23,16,25,16,8,8,21,15,20,25,20,24,24,16,7,8,21,15,20,32,31,36,32,32,40,40,40,32,31,39,43,39,35,43,43,40,44,47,65,52,40,27,27,32,36,39,47,59,55,47,52,51,52,40,35,43,43,57,47,47,43,57,43,52,60,63,55,55,60,52,39,47,64,55,52,48,40,23,32,40,35,36,36,36,24,24,23,32,27,41,36,29,15,15,16,12,12,12,12,12,8,3,4,3,12,12,12,16,16,20,15,100,100,100,16,100,100,100,100,100,100,100,100,100,100,100,100,100,100,100,100,100,100,100,100,100,100,100,100,100,100,100,45,33,37,28,100,100,54,76,100,81,100,42,38,43,51,56,40,31,74,47,100,55,85,36,12,76,82,75,95,100,93,70,32,11,100,100,100,100,100,100,100,100,44,39,32,38,16,16,34,27,31,27,28,28,25,12,25,36,22,16,23,38,34,8,4,21,25,12,0,4,50,32,100,100,0
0,0,0,0,0,0,0,0,0,100,100,0,4,0,4,4,4,0,0,0,0,0,0,4,8,12,7,13,11,13,8,8,12,12,16,16,12,4,3,4,4,13,4,4,9,4,0,4,8,3,3,4,4,13,4,4,8,4,13,9,0,0,0,4,4,4,13,4,0,9,13,9,4,4,8,8,3,4,0,0,0,0,0,0,0,4,8,8,3,8,12,16,12,12,11,7,8,8,4,4,8,4,4,8,7,12,8,8,8,0,8,12,12,12,12,7,8,9,9,8,4,4,13,8,12,12,12,12,4,0,56,61,43,85,56,100,90,76,72,36,30,32,29,25,25,12,9,7,16,28,43,47,39,37,28,28,28,28,27,45,43,48,35,31,40,52,52,51,61,48,53,48,47,56,69,55,56,51,47,47,56,47,55,60,52,52,47,48,40,36,36,44,39,39,43,51,50,55,51,47,43,47,51,47,43,48,39,40,32,32,27,32,23,20,15,20,21,8,16,29,32,23,20,25,20,16,29,27,23,16,8,12,20,25,16,12,8,4,8,12,16,4,12,16,25,28,32,23,29,20,21,20,20,7,9,4,8,3,8,4,0,4,9,8,4,0,0,4,8,4,13,4,4,9,4,4,9,8,12,4,9,4,3,4,9,8,9,9,8,8,4,0,4,3,8,12,12,12,8,8,4,0,4,12,8,9,0,0,4,4,4,8,4,17,3,9,4,3,3,3,0,8,7,7,12,4,12,12,21,7,4,8,12,28,31,45,28,20,11,12,13,8,8,8,16,11,12,29,31,31,23,8,11,29,29,24,24,23,36,32,24,20,24,20,15,25,15,20,16,12,17,7,16,11,12,8,3,8,12,4,4,4,0,9,0,0,0,0,4,3,3,8,4,4,9,9,7,21,3,4,4,3,4,4,4,4,12,16,16,12,12,16,16,16,11,16,12,12,12,12,20,16,20,20,20,16,11,17,8,8,12,12,20,24,24,16,12,12,7,7,12,17,12,7,12,12,12,8,4,4,13,4,4,13,4,4,4,4,4,4,9,12,7,12,11,12,12,0,8,12,12,20,16,3,7,12,17,8,12,16,23,36,36,31,19,12,17,7,12,12,12,20,28,20,29,31,49,39,41,46,47,59,72,63,47,35,32,33,24,25,12,16,25,16,20,27,53,65,43,32,32,54,44,35,36,32,36,27,28,28,27,32,27,32,36,41,34,12,12,8,9,9,22,30,12,3,16,12,3,8,3,17,7,12,3,12,15,23,28,25,16,3,4,4,0,0,4,12,7,8,4,9,8,4,4,12,21,7,9,4,4,4,4,8,17,7,8,9,16,20,16,20,27,23,17,22,38,23,17,22,8,16,16,17,8,12,20,20,16,7,8,4,9,9,8,21,9,9,13,12,21,25,16,13,16,20,16,21,16,7,3,12,30,7,9,4,4,7,25,16,20,24,27,39,51,47,31,29,16,20,15,24,19,20,21,16,21,25,23,32,32,32,28,23,27,32,32,32,32,41,31,35,39,48,44,39,39,36,27,41,45,36,44,55,73,51,47,40,32,31,39,44,35,54,53,52,56,51,60,60,51,47,55,54,55,56,47,39,47,56,52,43,47,52,40,35,39,39,49,43,52,39,36,41,27,40,44,40,44,40,27,20,16,11,24,40,43,35,23,15,15,25,25,16,12,7,7,12,8,4,9,12,11,11,11,16,15,20,21,13,12,20,19,24,24,24,100,100,100,51,61,100,100,100,100,100,100,83,100,100,100,100,100,100,100,100,100,100,100,100,23,54,100,100,23,58,100,100,100,9,21,41,69,70,82,61,47,96,100,80,74,41,26,30,100,100,100,100,32,100,46,100,100,100,100,100,100,100,100,39,40,32,32,39,44,40,49,40,37,25,3,4,12,34,36,49,31,28,25,8,4,4,9,14,14,0,0,21,32,63,100,100,0
0,0,0,0,0,0,0,0,100,100,100,4,4,12,12,12,4,0,0,0,0,0,0,0,4,8,12,3,50,8,3,8,7,12,12,8,4,4,4,0,4,3,4,4,9,4,0,4,12,8,13,0,4,3,4,4,4,4,8,7,7,12,12,8,8,8,4,4,4,4,4,9,4,4,8,4,13,4,0,0,0,4,3,4,0,0,0,0,4,8,3,13,8,12,12,7,8,9,4,4,8,4,4,4,12,12,8,9,9,0,9,8,4,4,8,12,4,4,9,8,0,8,17,9,4,4,8,8,4,25,32,25,100,39,56,90,100,61,37,15,37,24,58,60,44,24,17,13,12,29,27,35,36,20,20,27,32,28,28,27,36,31,31,44,47,51,47,51,51,40,27,35,43,35,45,39,47,52,51,52,49,43,51,64,63,55,56,47,39,40,54,39,44,35,36,45,43,52,48,39,39,39,53,44,27,32,40,31,32,28,20,25,20,16,12,12,8,21,16,24,33,30,4,8,4,16,15,20,24,20,21,12,16,17,42,54,47,58,77,82,49,26,8,3,4,12,25,11,3,0,0,8,15,20,13,4,8,3,8,4,0,4,4,4,4,0,0,4,9,8,9,4,8,9,4,4,13,4,4,9,3,4,9,4,13,4,4,4,0,0,0,0,0,0,4,3,4,4,9,4,0,4,8,9,9,4,0,0,4,4,4,4,4,9,4,4,9,13,4,0,0,4,8,8,3,12,12,4,16,20,25,21,8,21,42,35,35,41,23,20,16,16,8,0,17,12,20,23,28,28,28,16,22,18,9,8,11,29,33,32,27,28,19,28,24,16,16,15,20,15,16,16,11,12,4,4,0,4,3,3,8,4,4,3,4,0,0,0,0,9,0,3,16,17,8,12,16,16,12,12,21,16,8,4,4,0,4,8,12,12,12,7,7,12,12,12,8,3,8,16,16,12,12,20,16,12,8,8,12,12,12,11,12,16,16,16,8,4,4,4,3,9,0,4,8,8,8,8,4,4,9,9,8,8,12,12,4,4,9,8,17,3,8,7,12,3,8,8,9,4,9,13,17,30,25,16,12,17,8,12,23,31,31,36,27,34,12,21,12,17,3,12,12,16,20,25,21,16,12,3,38,57,63,72,54,51,43,31,34,21,3,3,18,17,20,32,44,52,44,32,47,36,48,40,31,35,31,19,15,20,24,33,20,25,7,4,7,3,4,0,17,33,44,43,41,16,4,4,4,8,8,12,16,11,12,7,16,21,25,16,15,16,17,9,4,8,12,8,8,3,8,8,12,16,12,9,13,21,16,16,3,9,9,4,4,12,16,21,18,4,4,12,25,21,8,33,36,37,16,7,24,29,25,16,17,12,21,17,0,8,11,12,18,4,3,14,7,21,12,7,9,18,12,11,25,4,8,8,9,8,16,28,23,24,24,20,7,8,12,20,15,24,31,44,39,36,27,29,21,21,20,23,24,16,12,8,0,3,16,28,36,31,36,31,31,32,40,44,43,40,36,35,39,48,52,48,39,40,45,27,27,31,43,60,63,59,56,48,48,39,39,40,32,11,20,31,62,48,47,61,47,47,48,48,43,47,47,43,47,47,45,32,36,40,35,39,39,35,31,36,45,27,36,44,48,39,39,44,35,39,44,46,28,32,32,27,40,35,45,44,53,56,52,35,46,32,20,16,15,25,25,20,20,19,20,16,11,25,28,32,23,23,27,32,32,27,28,28,28,20,12,12,16,20,100,100,100,100,100,89,100,100,100,100,100,100,100,100,100,100,100,100,100,100,75,92,100,100,30,100,100,100,100,100,68,57,100,100,100,83,100,100,69,100,100,100,100,100,100,76,100,100,100,100,100,100,100,100,100,100,31,54,37,8,56,47,39,33,7,7,30,34,23,40,58,39,45,27,23,20,4,8,8,13,25,12,0,34,32,36,100,100,0
0,0,0,0,0,0,0,0,0,100,100,8,9,9,18,37,41,21,0,0,0,0,0,0,0,0,4,20,23,29,12,7,12,11,7,4,4,8,4,0,0,0,0,4,9,4,0,4,8,17,8,4,0,0,0,4,8,4,4,3,8,13,8,8,9,9,0,0,4,13,9,4,4,4,8,9,9,4,0,0,0,4,13,4,4,3,4,4,8,4,4,13,4,13,3,8,8,4,4,0,4,9,8,4,4,0,4,8,8,0,8,4,0,4,8,12,4,4,8,4,8,18,0,9,4,0,0,0,0,4,12,64,60,94,100,70,41,12,12,17,15,40,61,68,59,52,50,38,7,12,23,37,20,12,16,29,24,24,32,32,28,36,43,43,48,43,43,43,43,40,27,32,40,36,32,31,35,40,49,40,35,40,43,56,51,47,47,43,43,40,44,49,43,39,36,27,27,32,27,31,35,40,35,31,37,32,32,32,41,41,41,28,28,32,33,24,33,31,32,20,16,16,30,26,16,16,25,16,20,24,33,20,15,15,59,63,61,100,100,100,79,70,42,4,8,4,9,4,4,8,8,8,17,21,7,4,4,4,4,8,8,8,4,4,4,0,0,4,9,8,9,4,9,13,4,4,4,12,12,4,0,4,3,4,7,3,4,4,0,0,0,0,0,0,0,4,3,3,13,4,0,0,9,12,8,9,0,0,4,12,12,4,4,9,0,8,12,9,4,0,0,0,4,8,3,8,8,4,4,16,23,27,20,21,9,20,36,35,36,28,20,16,12,3,13,4,16,16,11,16,24,28,32,23,24,11,12,12,8,13,21,21,16,20,25,15,15,20,20,16,11,16,11,12,17,17,17,12,12,12,8,4,0,0,0,0,4,8,12,8,12,12,20,11,8,8,8,3,8,16,21,12,12,7,17,8,4,0,4,8,12,12,12,12,12,8,8,12,12,12,12,16,16,11,16,11,8,7,16,12,12,12,7,7,8,3,8,0,8,3,12,12,0,8,4,0,0,4,4,4,13,4,8,8,7,12,3,4,12,16,16,16,12,8,4,8,8,12,25,23,28,32,32,28,25,16,25,16,16,16,20,23,32,36,44,54,27,15,12,12,12,4,4,4,8,4,0,0,3,30,28,35,52,52,56,52,40,23,12,9,4,8,13,12,21,20,34,40,21,25,24,42,50,40,39,40,27,20,12,12,12,16,33,29,12,4,12,8,13,25,54,52,48,32,39,16,12,4,9,8,17,8,3,12,11,12,4,9,8,0,8,21,12,0,8,12,4,4,4,12,7,7,17,17,8,13,13,4,12,21,12,17,12,8,3,12,28,27,33,15,24,41,46,33,17,9,14,22,16,20,17,22,21,34,20,3,13,13,13,4,17,12,12,9,9,13,17,16,12,13,12,24,29,7,13,3,13,4,4,9,21,17,8,17,21,24,20,21,21,24,24,23,32,32,32,27,36,28,25,11,16,16,21,4,18,8,16,25,20,20,20,23,28,32,28,31,43,47,47,48,36,36,31,36,40,49,40,49,35,32,32,32,31,45,53,44,40,39,43,43,35,36,36,33,25,20,29,28,35,35,35,40,31,36,39,43,43,48,47,47,39,45,31,36,39,39,39,44,36,27,28,37,40,43,48,49,39,47,51,51,47,56,43,43,35,27,37,35,47,56,50,65,56,43,52,52,49,36,40,48,48,31,32,31,40,35,50,36,45,44,39,44,44,45,31,40,40,31,27,28,28,33,19,29,20,8,100,100,100,100,100,100,100,100,100,100,100,100,100,100,100,100,100,100,100,100,100,98,32,100,58,100,56,100,20,100,100,100,100,100,100,74,38,100,51,100,100,100,100,35,17,89,100,95,44,40,100,100,100,44,53,63,25,89,40,40,19,21,25,27,35,31,36,35,41,28,27,32,19,16,8,9,12,25,12,0,64,63,70,28,100,100,0
0,0,0,0,0,0,0,0,100,100,100,8,12,24,21,44,70,25,0,30,27,30,4,3,4,0,4,4,0,4,8,12,3,12,12,4,4,4,12,12,12,12,12,12,9,9,3,0,8,12,4,0,0,0,4,8,4,4,3,4,8,4,9,4,8,8,4,0,4,17,12,8,4,4,4,4,13,4,4,8,12,12,8,8,8,12,8,8,8,4,4,3,8,17,8,9,4,4,4,0,4,12,8,0,8,4,0,0,0,0,4,12,12,12,12,8,4,4,8,4,12,16,16,12,4,0,0,0,0,4,4,8,8,39,27,31,11,12,4,8,12,16,29,53,70,56,40,25,18,20,24,24,21,22,16,25,20,19,28,28,36,35,43,43,39,35,40,43,47,40,40,40,36,27,23,23,31,40,31,40,40,40,39,43,39,43,47,52,43,35,32,23,41,36,27,28,24,19,27,27,27,36,45,36,40,39,35,35,39,48,44,36,40,35,40,31,27,41,27,19,25,24,32,23,20,24,19,15,12,16,20,24,20,38,67,46,28,93,100,82,58,56,47,38,14,4,4,9,12,12,9,4,4,4,4,4,8,3,8,9,4,8,4,4,12,12,8,3,13,4,4,8,7,8,4,4,12,12,8,4,0,0,0,4,13,4,4,4,0,0,0,0,0,0,0,0,9,4,3,4,0,4,8,8,4,4,0,0,4,8,8,4,9,4,4,4,4,13,4,0,0,4,3,3,12,12,8,4,0,4,12,25,20,29,16,9,25,24,33,23,20,16,16,16,12,4,4,8,12,12,16,24,32,27,23,24,20,15,15,29,24,20,3,0,3,12,12,12,12,16,11,16,20,15,20,24,20,16,12,8,4,4,3,4,4,8,12,12,16,12,12,8,8,8,12,12,12,8,8,12,12,25,20,15,20,16,12,4,0,0,0,4,8,12,12,4,3,11,16,12,12,12,12,12,8,12,12,12,12,12,8,3,8,12,12,12,7,16,16,8,13,4,4,8,4,0,4,8,4,4,3,9,4,4,8,12,12,7,8,8,7,11,16,17,12,16,21,7,16,33,24,28,32,29,25,20,16,16,20,12,12,11,19,23,41,31,27,24,16,21,12,3,4,17,8,4,0,8,24,36,40,46,33,29,29,32,35,31,16,4,3,13,8,8,8,9,17,8,35,25,34,20,28,40,35,40,27,29,20,16,25,29,23,23,25,3,9,16,37,49,53,40,49,38,36,11,12,12,4,17,12,3,4,4,12,8,0,12,8,4,4,12,8,9,9,12,12,8,8,4,13,3,8,14,8,16,16,9,8,17,9,4,8,8,4,0,23,26,15,20,38,40,44,31,24,13,20,29,3,35,25,12,18,15,20,13,8,17,12,12,12,3,17,0,4,21,21,4,12,9,8,16,25,12,4,0,9,13,4,9,26,15,12,4,4,13,21,12,8,17,16,20,19,29,24,23,28,37,28,19,24,16,3,13,4,25,28,23,20,16,16,20,29,28,36,45,40,43,47,51,43,32,28,32,31,36,35,40,43,44,41,36,36,27,23,28,32,36,40,36,27,32,27,31,36,16,8,12,24,37,27,27,31,44,43,47,51,47,48,43,43,43,43,40,36,36,36,40,36,35,44,52,43,47,56,39,48,47,52,52,47,52,47,51,56,52,40,35,39,39,44,35,39,47,47,47,51,56,47,60,55,47,48,43,39,52,52,56,56,47,47,39,49,48,43,39,40,35,36,27,31,35,27,23,23,15,12,100,100,100,100,100,100,100,55,90,100,100,100,100,100,100,100,100,100,100,100,100,93,84,100,100,100,8,96,100,100,100,36,100,100,100,71,100,100,100,100,100,76,90,24,41,100,100,36,49,79,51,48,43,65,57,100,71,67,29,25,16,20,32,36,32,23,34,17,12,20,20,21,8,12,8,4,14,14,0,4,100,32,67,100,100,100
0,0,0,0,0,0,0,0,100,100,100,4,13,46,21,41,74,21,0,4,69,4,4,13,4,0,4,9,4,4,0,4,4,4,4,9,8,8,12,12,12,12,12,8,9,9,13,4,9,8,4,4,8,8,8,8,4,4,8,8,13,8,3,4,0,0,0,0,4,3,13,4,4,4,8,4,3,4,4,12,12,8,8,8,12,8,8,12,4,0,0,0,3,12,16,20,16,12,4,0,4,3,4,4,8,8,0,3,4,0,4,7,16,7,4,0,4,3,3,8,4,3,8,3,4,0,0,0,4,8,3,13,0,8,12,8,4,4,0,12,16,8,3,30,39,26,17,19,23,25,16,25,20,34,12,32,21,29,21,21,27,36,27,32,41,31,36,45,41,31,35,40,36,31,45,31,27,28,32,36,40,35,35,40,35,39,35,32,40,39,58,45,27,37,36,36,41,36,36,32,32,23,29,20,29,29,38,27,27,28,23,28,33,24,29,11,16,16,17,8,8,11,20,24,20,16,16,16,12,12,12,8,12,3,4,9,29,63,63,42,16,16,50,36,25,4,8,8,8,8,8,9,9,8,4,8,7,8,9,4,9,4,0,4,8,12,12,3,3,4,4,4,0,0,0,4,4,0,0,4,3,4,0,4,13,4,4,4,0,0,0,0,0,0,4,8,4,4,0,0,4,8,8,8,8,4,0,4,8,8,4,4,17,8,8,8,12,8,4,0,0,0,9,4,8,12,12,12,8,4,0,8,16,19,19,24,25,4,17,15,24,15,11,21,12,0,3,3,3,4,4,16,24,23,23,19,24,20,19,32,36,23,24,20,16,21,8,4,12,17,7,12,20,19,20,16,16,15,20,21,16,16,12,16,16,12,7,7,12,8,4,0,0,3,12,7,8,12,12,12,16,20,25,16,7,17,7,12,12,8,4,0,0,0,4,12,12,12,9,0,0,0,0,0,9,4,3,4,4,8,12,16,12,3,3,12,16,12,21,12,8,9,0,4,4,4,8,8,4,0,0,4,4,4,8,8,8,12,12,12,12,7,12,20,15,20,19,29,25,20,25,20,24,19,24,20,16,24,24,21,8,8,21,20,20,28,36,44,36,24,16,12,4,14,4,4,12,25,23,33,16,22,8,16,20,24,37,41,20,8,0,9,9,4,4,12,4,25,40,53,49,27,28,45,27,28,32,45,36,36,36,19,20,20,15,8,3,20,36,49,40,54,49,100,28,20,16,7,9,9,8,4,4,12,21,12,3,3,4,0,4,3,4,0,4,9,4,8,12,12,9,4,4,13,12,8,9,12,16,16,12,17,8,13,8,7,15,11,9,8,13,4,16,24,20,25,22,9,23,9,12,29,33,21,9,12,12,4,9,14,4,12,12,4,3,9,12,12,18,9,3,9,9,8,12,3,13,14,4,9,16,27,13,12,7,4,13,13,4,9,12,16,29,23,27,27,28,24,23,28,33,20,15,20,12,12,21,12,16,24,29,24,23,32,43,56,52,39,39,52,43,35,36,40,40,45,44,48,57,48,39,44,31,27,32,35,48,40,31,32,28,33,28,32,27,32,33,29,25,20,28,31,35,35,40,41,37,32,32,28,23,41,36,32,23,20,19,36,40,39,52,56,50,60,58,67,64,43,35,39,47,52,52,56,59,63,60,52,47,48,40,40,48,47,47,47,56,56,47,56,54,59,60,51,52,43,48,47,69,60,47,48,43,39,44,31,31,40,44,35,27,32,27,32,23,23,100,100,100,8,100,100,100,100,100,100,100,100,100,100,100,100,100,100,100,100,100,100,100,100,100,100,81,100,100,100,100,100,100,100,100,100,100,100,100,100,100,50,100,72,100,100,100,36,36,39,60,52,41,27,50,76,59,67,21,16,24,29,20,20,20,16,17,4,0,17,25,16,8,4,9,3,12,25,12,0,65,59,46,51,100,100,0
0,0,0,0,0,0,0,0,100,100,100,4,27,4,23,25,31,29,4,29,40,33,9,9,8,4,4,12,12,4,0,4,4,4,7,25,16,16,12,4,0,0,0,0,4,9,17,3,9,4,0,0,9,9,4,4,0,4,9,4,8,4,0,0,0,0,0,0,0,4,3,4,4,4,4,0,0,0,4,4,0,0,0,4,0,9,8,4,4,0,0,0,4,8,8,16,16,11,7,4,0,0,0,0,4,8,4,9,4,8,12,12,12,12,12,8,4,13,4,9,4,4,8,8,4,4,8,12,12,7,8,9,4,8,4,4,3,12,12,26,30,16,20,43,47,33,33,34,20,16,7,17,12,26,13,50,51,56,32,17,8,30,11,12,25,23,23,20,16,19,27,32,32,45,48,39,27,23,19,23,32,31,31,27,31,41,27,36,35,43,51,47,43,43,43,43,43,35,32,32,32,24,12,3,3,12,11,24,23,19,23,19,11,8,8,13,4,9,4,8,12,12,16,20,16,12,12,12,16,16,20,17,8,16,16,23,47,54,61,55,25,9,34,27,38,17,9,3,4,9,8,4,12,8,4,8,3,9,8,12,12,4,0,0,0,4,8,4,0,0,4,8,4,0,4,8,4,0,0,4,13,4,0,4,3,4,4,4,0,0,0,4,3,8,8,12,9,0,4,8,8,8,12,12,8,4,0,0,9,9,4,7,16,17,8,8,4,0,0,0,4,4,4,4,0,0,4,4,9,0,0,4,12,16,20,28,23,16,13,12,24,28,38,20,20,12,13,0,0,0,0,4,12,15,23,23,23,28,28,23,32,23,23,27,36,36,19,21,20,16,8,4,16,29,28,24,20,20,20,15,25,16,11,16,20,12,12,8,9,4,0,0,0,4,13,4,3,12,7,4,0,0,4,0,4,4,12,11,12,12,12,12,12,12,12,16,11,3,9,12,8,4,0,4,3,4,4,3,8,12,12,7,17,8,8,12,4,4,9,3,0,8,7,12,4,4,8,4,0,0,0,4,4,4,4,4,8,7,12,16,16,16,16,20,15,20,27,36,23,25,20,20,20,12,8,4,4,17,25,20,11,21,8,3,21,23,40,47,44,28,20,16,29,46,28,16,12,16,16,7,12,12,16,21,16,25,12,27,8,3,4,9,9,8,7,12,24,36,43,47,43,32,32,37,32,37,40,48,35,32,24,28,28,28,20,21,4,16,15,24,47,24,83,60,60,13,12,8,3,12,12,4,4,8,21,12,4,0,4,8,17,12,12,7,12,12,8,4,4,4,13,4,3,21,3,3,21,16,16,12,0,21,22,0,14,0,9,13,8,17,4,13,3,12,24,40,43,53,53,40,61,60,56,44,28,21,18,22,3,4,9,9,9,4,18,18,7,11,30,9,13,3,8,0,8,8,8,8,13,8,12,25,25,16,17,4,13,18,0,4,4,13,12,8,29,28,28,28,32,23,29,19,19,20,16,13,3,20,23,23,23,27,41,40,35,52,51,47,53,44,39,35,45,39,48,44,41,31,41,28,23,32,23,23,19,37,40,40,28,32,37,28,28,40,56,60,51,36,23,24,23,28,28,28,24,25,25,25,15,15,25,16,12,16,24,29,28,37,32,40,44,43,56,51,60,72,63,64,65,51,47,60,69,51,47,60,55,55,56,39,40,49,43,47,43,47,47,60,47,47,51,65,51,52,56,50,65,50,56,56,47,47,48,40,40,49,35,35,39,44,36,27,31,35,27,27,27,24,20,16,16,38,100,100,100,100,100,100,100,100,100,100,100,100,100,100,100,100,100,100,100,100,100,100,100,100,100,100,100,92,100,100,100,100,100,64,76,100,83,100,100,100,100,36,40,39,36,32,20,26,21,12,16,20,29,28,23,23,24,25,7,9,9,29,45,76,96,84,26,12,13,20,20,29,45,34,4,12,12,80,100,100,100
0,0,0,0,0,0,0,0,100,100,0,0,4,50,4,4,12,12,4,4,9,8,9,9,8,12,7,8,8,8,8,8,12,3,16,20,16,12,8,4,0,0,0,4,8,9,4,17,12,4,0,4,8,8,9,4,0,4,4,9,0,0,0,0,0,0,0,0,4,8,12,12,4,4,9,4,4,4,8,4,3,4,0,0,9,4,12,12,4,0,0,4,8,4,4,4,4,12,12,12,12,12,8,4,0,4,4,8,8,8,12,8,8,8,12,12,12,16,16,17,8,8,12,12,4,4,12,12,8,4,9,13,4,4,0,4,4,17,16,32,35,40,39,48,49,23,20,8,13,8,8,8,17,17,30,35,68,39,17,25,28,47,8,8,16,15,24,19,24,20,15,29,15,29,32,37,23,23,20,20,20,28,32,27,23,24,20,33,37,32,36,40,35,40,40,35,36,23,24,28,29,16,12,12,21,24,23,24,16,12,20,20,16,7,4,0,8,16,16,17,9,4,4,8,12,11,7,3,8,12,21,16,12,21,15,32,49,47,65,62,28,33,56,35,12,21,16,12,8,8,12,4,3,4,4,4,4,13,4,4,3,4,0,0,0,0,4,4,0,0,4,8,4,0,4,8,4,0,4,8,8,8,0,8,8,0,8,4,0,0,0,4,13,8,9,8,7,8,8,12,8,9,4,3,4,0,0,4,4,8,3,12,8,9,9,8,4,0,0,0,0,9,0,0,0,4,8,12,8,4,0,0,4,12,24,23,23,20,25,8,17,28,35,36,28,20,20,7,4,0,0,0,4,8,12,21,20,20,24,20,25,20,15,20,33,38,20,24,24,19,20,11,12,18,21,20,15,16,12,8,8,7,16,16,11,16,16,7,0,9,4,4,0,4,9,4,0,9,9,0,0,4,8,0,12,12,11,12,8,3,8,12,12,12,12,12,12,3,8,12,12,12,12,8,4,4,8,12,12,4,4,8,8,12,8,9,4,8,4,0,0,4,12,8,4,4,8,4,0,0,0,4,4,4,4,8,12,12,12,12,16,20,20,24,23,23,23,37,28,24,20,20,16,16,16,16,21,17,21,20,16,15,23,33,24,29,28,42,29,12,16,28,43,47,47,49,41,25,11,20,24,15,20,16,12,13,3,21,3,4,12,30,20,24,20,24,28,27,36,36,27,23,24,37,35,44,45,36,23,29,29,15,23,27,19,16,12,18,3,8,18,16,16,20,16,7,8,8,7,7,8,4,8,12,12,0,8,4,4,12,7,12,12,16,11,12,8,8,4,4,3,4,3,12,3,3,16,12,4,17,12,20,16,16,25,16,16,20,25,16,11,21,11,20,27,31,54,47,64,67,75,71,58,51,43,44,45,32,24,16,16,15,21,9,8,17,21,19,36,38,18,9,9,8,17,13,8,13,4,8,12,12,9,0,9,13,16,33,20,4,16,24,28,20,22,12,16,20,23,23,24,24,23,23,24,20,16,24,27,32,36,31,39,43,43,35,43,52,52,49,35,39,58,39,44,35,36,23,28,28,32,23,28,23,24,16,20,33,29,23,39,56,61,51,65,57,54,37,28,36,44,57,48,41,27,44,43,44,40,40,45,45,45,54,35,53,35,28,33,33,28,36,44,43,43,43,55,67,67,63,76,71,62,55,43,40,43,51,47,52,43,43,49,44,39,43,51,50,47,43,39,44,48,43,48,47,56,43,39,39,39,40,36,27,45,43,43,48,44,40,49,43,39,40,36,31,44,53,40,28,20,12,25,58,100,100,100,100,100,100,100,100,100,77,100,100,100,100,100,100,100,100,100,100,100,100,100,100,100,100,100,100,100,100,100,100,97,100,100,100,100,31,36,32,27,27,28,11,12,29,20,12,12,12,15,33,29,19,25,21,3,8,9,12,74,14,100,70,9,8,9,28,14,24,96,38,4,8,47,40,100,100,0
0,0,0,0,0,0,0,0,100,100,100,0,21,32,21,4,4,4,4,4,4,4,13,4,4,18,16,13,3,8,12,16,11,12,4,9,4,8,3,8,4,4,3,8,8,4,14,9,3,4,0,0,0,0,4,4,0,4,9,3,4,0,0,0,0,0,0,4,8,12,12,8,4,4,12,12,4,4,8,4,13,4,4,4,4,9,4,4,4,4,3,8,8,3,8,4,4,4,7,16,15,15,16,16,8,3,12,12,8,9,0,0,4,8,8,3,8,8,8,3,13,8,4,4,8,3,12,12,8,3,8,8,4,4,0,4,4,4,7,24,32,40,45,36,50,37,29,7,13,12,12,8,20,20,4,18,45,20,17,20,48,52,24,8,12,16,20,20,21,8,8,8,21,15,16,11,17,9,7,24,23,20,25,15,15,20,29,24,24,37,40,40,35,32,28,23,24,19,24,24,24,24,28,28,28,24,29,20,21,25,20,15,16,12,25,36,51,40,47,31,17,0,4,12,12,12,12,12,12,4,8,11,11,12,16,27,44,55,85,100,100,88,80,50,32,9,17,8,8,4,4,8,4,0,4,4,4,3,4,0,0,0,0,0,0,4,4,0,0,4,4,9,4,0,4,4,0,0,4,8,9,4,0,9,9,4,8,4,0,0,0,4,13,8,12,8,3,12,12,4,4,3,4,0,0,4,8,12,12,8,8,21,20,17,8,8,8,3,4,0,4,3,4,0,0,4,8,3,3,4,4,8,12,12,20,29,24,24,24,20,17,9,25,33,27,27,24,12,8,8,12,12,12,12,12,9,4,8,12,7,17,3,8,8,3,12,16,25,20,23,28,20,20,24,12,8,11,16,8,4,0,4,12,12,12,12,12,9,4,12,12,8,8,12,9,4,4,8,8,4,3,4,4,8,11,16,12,3,8,12,12,8,4,0,0,0,4,12,12,8,3,8,12,12,12,12,8,8,3,4,0,4,9,3,4,4,8,8,3,3,4,4,8,0,8,8,8,12,12,8,8,8,3,8,3,8,3,7,12,12,16,24,23,41,35,44,49,31,31,31,27,23,24,23,37,31,27,24,25,24,37,37,27,36,32,19,16,22,4,4,12,28,39,51,55,54,55,44,28,16,26,16,29,19,12,9,4,8,0,16,23,32,32,36,23,16,15,28,32,41,36,42,20,20,46,23,16,16,20,23,29,20,16,25,20,20,20,20,12,12,11,7,3,8,8,12,11,17,9,0,0,4,8,12,12,4,8,12,12,3,12,8,8,17,12,12,3,8,4,0,0,0,4,4,4,3,21,25,20,16,12,12,29,23,23,28,28,24,20,20,33,23,20,20,25,20,24,40,53,49,59,53,56,51,55,55,65,60,47,45,28,32,32,29,16,16,13,12,33,32,32,24,16,12,12,25,15,16,17,4,4,4,0,8,20,40,40,32,29,4,16,24,29,25,12,8,13,9,30,25,20,20,24,29,24,24,16,16,20,37,27,27,31,44,39,43,43,52,40,31,44,47,56,44,27,36,36,31,32,27,35,35,31,27,27,32,46,43,70,62,53,56,60,43,36,19,23,49,48,48,56,60,65,56,51,56,55,55,51,51,50,51,65,43,58,43,43,35,32,20,25,33,28,41,44,48,47,55,67,67,75,75,63,50,47,48,47,48,43,49,40,31,32,31,43,52,43,47,51,51,52,51,55,47,40,31,32,23,36,44,35,27,20,16,16,29,41,39,43,52,60,51,43,40,40,31,49,57,48,44,32,28,23,24,13,24,100,100,100,100,100,100,100,100,100,100,100,100,52,100,100,100,100,100,100,100,100,98,100,100,100,100,100,100,76,100,96,100,93,100,100,32,31,37,24,24,37,24,43,38,12,22,16,18,21,12,12,25,25,16,21,12,8,20,36,86,86,88,25,12,43,23,31,29,100,34,4,3,4,12,100,100,0
0,0,0,0,0,0,0,0,100,100,100,0,4,9,4,4,4,4,9,8,4,4,0,4,0,0,42,4,0,4,3,8,12,8,0,4,9,4,0,4,0,4,13,9,4,4,4,17,8,4,0,0,0,0,4,4,4,4,4,4,0,0,0,0,0,0,0,4,8,4,0,0,0,4,3,9,4,4,9,8,9,9,8,12,4,4,4,4,9,8,12,12,4,0,4,4,4,4,12,12,12,12,17,7,12,3,8,8,8,8,8,4,4,13,9,0,0,0,0,4,8,12,7,3,8,7,7,12,12,12,12,12,12,4,4,8,4,4,8,12,20,32,31,36,50,31,29,8,3,12,8,4,20,28,31,49,62,44,23,12,32,45,4,4,12,16,16,11,12,22,4,8,20,20,16,8,4,22,9,21,25,16,11,16,15,20,23,27,31,35,49,39,40,27,19,15,20,23,28,23,23,27,31,31,27,20,17,16,24,23,29,16,12,3,8,65,29,47,87,43,38,12,4,9,3,7,12,16,16,12,3,12,12,8,16,31,18,49,70,96,96,94,64,49,29,16,17,3,4,9,8,9,0,0,4,4,0,0,0,0,0,4,8,12,8,8,8,8,4,0,9,4,4,8,12,4,0,0,4,12,12,8,0,8,8,0,8,4,0,4,3,3,3,8,3,4,4,9,4,4,0,0,0,0,0,4,12,8,8,8,12,21,21,4,9,4,8,12,8,4,0,0,4,3,4,4,4,4,12,12,12,12,12,12,3,4,16,19,23,20,20,15,21,13,23,40,41,29,34,23,28,28,19,12,8,16,7,4,4,4,13,4,0,0,4,17,12,16,16,21,21,12,15,24,16,17,21,21,12,4,4,8,9,4,3,4,0,4,8,7,8,12,12,8,8,12,12,12,8,8,13,3,8,16,16,12,3,8,3,8,12,9,4,8,8,4,4,8,12,9,4,3,4,4,8,8,4,0,0,0,4,8,8,3,4,4,8,3,8,12,12,8,4,4,13,9,4,8,12,12,16,11,16,12,12,8,12,12,12,21,16,24,27,31,45,39,52,43,40,35,36,27,28,31,35,36,31,37,24,36,39,39,31,19,15,16,12,18,4,17,25,20,28,45,52,48,49,40,28,16,8,17,34,29,24,11,4,4,8,12,25,24,20,29,27,49,44,44,36,37,32,27,19,16,40,12,7,20,28,28,28,41,19,16,15,20,16,16,16,16,16,12,3,18,4,8,17,12,11,7,4,4,9,13,13,4,7,11,12,12,11,12,4,17,12,12,4,4,12,8,4,0,4,4,12,12,20,28,23,24,33,36,40,27,27,31,32,19,24,32,36,32,41,36,37,33,29,42,16,4,3,9,29,36,53,53,39,62,71,48,31,28,38,27,37,21,8,4,12,24,28,28,25,7,8,11,20,12,8,8,16,24,28,37,32,54,35,24,16,12,9,18,26,29,16,17,28,24,18,8,16,24,20,24,27,32,24,24,24,24,33,32,31,35,39,39,44,40,44,39,39,52,48,40,45,36,41,40,27,32,36,32,31,36,36,39,52,70,70,43,23,28,32,23,28,27,44,47,43,39,40,36,36,43,60,59,59,60,55,55,60,43,36,36,36,35,40,46,20,11,20,24,29,24,33,28,41,40,62,47,61,60,50,51,56,51,47,43,40,36,36,36,27,31,45,44,43,47,55,59,63,59,56,47,35,27,23,29,29,32,36,27,24,25,16,16,16,33,41,44,61,47,47,47,43,53,35,36,39,43,40,36,36,29,16,34,40,100,100,100,100,100,100,100,100,100,100,100,100,100,100,100,100,100,100,100,100,100,100,100,100,100,100,41,72,100,100,100,100,100,40,36,32,27,45,45,28,41,57,54,57,25,73,26,12,16,21,20,16,16,12,16,11,25,22,41,77,83,100,87,79,100,76,41,48,38,0,9,0,23,100,100,0
0,0,0,0,0,0,0,0,0,100,100,0,4,9,4,4,4,4,12,8,4,0,9,0,0,21,20,12,4,3,4,0,4,8,12,12,8,4,4,8,4,4,9,9,4,4,27,16,26,0,0,4,3,8,8,4,4,8,9,0,0,4,3,4,4,8,8,3,12,12,8,4,4,3,4,4,4,4,4,9,13,4,4,9,9,9,4,4,12,8,9,4,4,4,8,0,8,4,4,0,0,0,4,4,4,9,3,4,4,8,12,12,12,4,8,4,0,0,4,12,11,16,12,4,4,8,8,8,8,7,12,16,11,3,4,8,4,4,8,7,12,34,37,40,49,24,8,4,3,8,8,12,17,20,41,52,56,48,36,45,49,46,25,8,3,17,11,16,16,11,12,17,17,12,12,16,16,34,29,7,3,12,12,12,12,15,23,28,28,19,24,33,23,24,15,11,15,28,28,23,23,28,28,28,28,29,16,16,16,12,13,4,12,3,39,32,32,50,79,24,19,20,8,8,4,9,12,16,12,8,4,9,4,8,12,16,89,35,44,45,41,37,23,15,12,12,16,8,8,4,12,8,4,0,4,4,0,0,0,0,0,0,9,12,12,12,3,12,8,9,4,17,7,12,8,4,0,0,4,4,4,4,0,0,0,4,4,0,0,0,9,0,0,0,0,0,4,8,12,12,8,8,3,4,0,4,12,8,8,8,8,17,11,16,12,8,4,9,4,0,0,0,0,9,0,4,4,4,9,8,8,3,8,12,8,3,3,12,24,20,20,20,24,16,13,38,32,35,40,31,35,35,27,29,24,20,11,7,12,12,20,16,16,8,3,17,3,4,0,8,9,8,11,20,28,32,19,25,16,12,12,17,17,12,12,4,4,8,12,12,16,20,12,12,12,16,15,15,16,17,8,12,7,8,13,4,8,12,12,4,0,9,12,12,12,8,3,4,0,9,12,12,8,4,0,0,0,0,0,0,0,4,4,13,4,0,4,4,8,12,11,7,9,8,21,11,8,8,8,3,8,16,11,16,17,16,11,16,20,20,20,20,23,28,27,27,28,36,31,40,31,31,40,31,36,27,31,36,40,35,35,31,36,23,20,16,17,13,8,16,19,20,20,23,32,27,19,15,20,20,11,21,20,28,36,40,24,13,9,4,4,9,7,19,45,43,56,47,40,46,50,31,24,18,22,42,41,23,27,31,27,29,25,20,20,12,12,11,12,8,8,3,8,21,16,8,3,12,12,12,4,4,8,21,12,7,12,12,16,7,9,4,9,3,12,8,4,4,8,12,8,8,9,8,16,16,16,15,23,27,36,44,35,36,36,31,31,41,27,32,36,44,61,60,43,27,25,27,13,3,4,9,8,11,16,20,32,15,25,23,32,20,16,21,27,3,8,8,12,16,20,20,24,20,21,25,19,29,34,33,23,27,41,32,16,25,29,15,16,28,53,83,69,39,28,21,36,27,13,12,7,16,23,31,36,36,32,23,28,23,27,27,28,32,36,35,31,36,39,39,53,48,52,39,35,40,36,37,28,27,24,15,23,39,56,60,43,35,35,45,50,36,27,28,28,31,44,39,44,48,39,35,40,39,48,47,48,48,43,48,49,44,39,35,35,37,20,20,55,53,57,56,56,36,23,41,37,19,28,32,36,31,39,47,55,52,44,44,43,52,47,48,35,32,27,36,43,51,55,59,60,48,35,40,31,31,32,23,28,28,23,27,32,29,25,29,19,24,37,40,35,39,57,43,51,60,52,39,40,43,61,43,48,40,24,7,34,36,34,12,33,100,100,100,100,100,100,100,100,100,100,100,100,100,100,100,100,100,100,100,100,100,100,100,100,100,100,100,100,100,100,32,32,31,40,41,32,36,41,63,13,54,28,30,17,20,20,16,16,12,3,12,20,24,16,87,4,91,85,81,3,100,100,22,13,0,4,0,3,12,100,100,0
0,0,0,0,0,0,0,0,0,100,100,0,4,13,4,4,4,4,3,4,0,4,3,4,0,0,4,8,8,12,8,4,4,12,16,16,7,4,4,12,8,3,13,8,12,8,9,51,4,4,0,4,12,12,8,3,8,8,8,8,8,8,12,12,12,12,12,12,11,12,12,12,12,12,12,12,4,4,9,8,8,8,8,9,4,4,4,4,3,4,9,9,0,4,8,3,8,4,4,4,8,8,3,8,8,16,12,12,12,8,8,8,8,8,12,12,8,8,8,12,16,3,4,4,0,4,8,16,16,16,16,16,12,12,12,4,4,8,3,8,12,9,8,29,27,20,12,4,9,8,12,8,9,4,20,36,36,20,11,41,48,58,23,12,4,9,4,7,16,21,16,16,8,4,12,25,27,44,44,23,16,3,8,16,20,20,28,24,16,11,16,21,16,20,24,33,28,24,19,19,24,20,20,23,27,27,23,24,12,4,7,3,4,17,8,9,14,36,36,25,12,4,4,8,0,8,0,12,12,12,12,4,9,8,7,47,48,55,15,16,12,12,12,16,12,8,8,12,8,9,4,0,0,4,8,4,0,0,4,3,4,4,8,4,4,3,4,9,8,12,12,11,12,8,8,4,4,3,0,12,12,12,12,8,4,4,8,4,3,3,8,8,4,4,8,8,8,8,7,12,12,12,12,4,0,4,8,12,8,12,12,7,12,8,3,8,12,12,8,3,8,8,8,7,3,4,8,4,4,4,3,4,9,13,4,9,0,0,13,12,16,15,20,15,16,13,16,31,35,36,41,41,31,44,40,27,20,16,11,11,16,25,15,15,16,12,13,0,4,8,4,12,12,20,24,29,25,12,12,12,8,9,7,7,8,8,8,4,4,8,21,16,12,12,16,12,12,16,16,8,8,8,12,8,4,0,12,17,7,8,3,7,12,3,4,12,12,8,3,8,4,9,4,0,0,0,0,0,0,0,4,8,8,17,3,0,4,8,3,12,12,12,16,16,16,16,16,12,12,12,12,3,8,8,16,12,12,16,20,23,33,20,15,20,29,16,16,24,23,27,36,39,39,32,23,32,27,32,32,29,24,24,24,20,20,16,8,13,9,7,15,28,23,25,21,25,15,24,28,16,12,11,21,30,25,45,18,4,4,9,0,4,12,24,42,23,32,49,39,44,44,36,27,43,15,51,32,16,25,28,24,21,21,20,16,16,12,17,4,4,8,12,21,24,24,16,8,3,4,4,4,4,13,8,12,8,3,7,16,8,9,4,9,12,8,4,0,4,3,4,12,8,22,16,12,12,7,16,25,28,27,29,20,28,28,28,36,43,35,37,36,43,43,50,32,28,21,18,4,13,8,17,17,9,3,16,20,21,4,7,29,11,3,26,25,11,17,7,7,12,25,23,19,16,20,23,36,40,52,43,40,32,24,16,12,4,18,16,11,24,53,73,69,39,36,36,44,36,16,13,8,16,28,32,32,31,36,32,23,32,27,37,28,28,27,36,32,31,43,51,51,47,47,51,44,31,28,11,16,20,20,16,20,32,61,51,39,43,61,43,40,41,31,40,40,44,40,35,40,35,49,40,27,36,32,28,28,32,32,27,27,35,44,31,28,20,24,31,51,59,59,73,68,74,65,64,48,32,27,27,31,48,52,47,48,40,35,40,43,50,54,55,43,49,39,39,48,47,52,48,40,35,27,24,24,29,19,24,28,33,19,27,40,54,36,36,23,28,36,48,47,39,36,40,47,47,47,47,52,52,51,56,43,40,32,16,12,12,4,0,0,13,55,100,100,100,100,100,100,100,100,100,100,100,100,28,48,83,100,100,100,100,100,100,100,100,100,100,100,23,29,30,4,30,27,20,19,41,20,17,78,4,18,8,20,25,20,11,13,21,28,13,25,16,41,39,78,57,86,24,73,100,87,35,38,0,4,13,4,4,100,100,0
0,0,0,0,0,0,0,0,0,100,100,0,4,3,4,4,9,8,8,4,0,0,0,0,0,0,4,8,9,9,4,4,8,7,12,12,9,4,12,11,12,7,8,9,4,9,31,3,32,4,0,4,9,3,3,8,8,4,0,9,4,8,8,8,4,9,8,4,12,8,3,8,8,8,8,8,4,4,12,8,4,4,8,4,9,13,4,0,0,4,8,8,4,4,8,4,4,4,4,8,12,12,3,8,12,16,11,11,7,4,0,0,0,4,8,12,12,12,8,4,14,0,4,4,0,0,3,12,21,12,11,17,3,7,11,12,12,9,0,4,3,8,8,8,11,20,12,0,3,8,8,8,8,4,3,21,16,21,21,25,36,40,28,12,9,4,9,12,25,24,24,24,20,16,8,7,24,36,32,33,20,16,16,15,20,12,13,12,20,20,24,16,16,20,28,31,32,23,20,16,16,16,20,28,28,25,12,21,11,16,21,7,12,21,21,24,33,43,41,27,13,21,12,7,7,17,8,8,8,12,8,8,12,12,8,3,3,3,8,12,8,4,4,12,8,4,4,3,4,8,4,4,3,8,12,12,4,0,4,12,12,12,12,4,0,0,4,4,4,3,4,9,12,12,12,12,8,9,4,12,8,8,12,9,0,4,8,4,9,4,8,12,4,4,13,9,0,9,0,0,4,3,9,4,0,4,8,7,17,4,4,8,4,0,0,4,8,8,4,0,9,12,12,12,12,7,8,3,12,12,12,3,8,8,8,8,8,3,8,3,8,12,20,16,11,12,13,17,26,11,21,21,23,36,40,36,32,29,20,29,20,12,7,16,21,12,4,4,3,4,9,8,7,12,12,11,20,15,12,8,4,9,8,4,4,8,12,12,0,8,9,4,4,8,12,12,12,12,3,17,16,12,3,8,8,3,3,8,8,7,12,12,12,4,4,8,12,8,0,8,12,8,8,4,3,4,0,0,0,0,0,9,3,13,9,8,12,11,12,3,7,16,15,16,3,3,17,3,4,8,7,8,3,12,16,16,16,16,20,24,23,23,20,16,16,20,20,20,20,28,28,37,41,40,32,28,19,23,23,16,12,16,11,20,24,16,13,9,18,16,15,20,21,7,12,11,20,23,33,20,20,7,9,16,20,29,25,8,12,20,12,8,13,17,26,20,16,39,23,28,24,28,36,40,28,22,13,21,16,20,20,20,19,19,23,23,16,4,8,12,12,11,24,23,28,20,25,12,4,4,12,12,8,9,3,7,12,8,8,8,4,12,11,12,12,4,4,8,12,12,22,12,7,18,0,4,12,12,11,20,20,11,20,20,24,28,31,36,41,40,31,31,27,19,24,32,46,12,18,8,4,4,9,4,4,9,0,9,13,8,21,16,13,8,12,16,16,8,8,16,23,28,20,29,37,32,27,39,56,51,39,31,23,16,20,25,16,24,15,21,16,16,38,23,27,35,40,27,20,20,25,20,25,24,27,40,48,40,31,31,35,52,43,35,31,32,36,35,43,52,43,35,45,49,37,20,25,29,20,37,49,65,75,62,39,39,43,39,54,44,40,23,28,41,40,36,32,27,31,37,32,23,37,23,15,11,16,15,20,23,28,28,32,31,27,28,27,27,36,40,36,36,53,55,56,62,56,70,51,69,69,63,71,59,52,52,44,35,39,48,52,52,55,73,59,56,52,48,40,31,31,36,27,28,19,24,24,37,31,28,24,19,46,43,43,36,28,15,11,29,41,40,48,47,47,47,55,55,47,52,44,44,40,40,35,41,28,20,12,4,8,12,12,9,100,100,100,100,100,100,100,100,100,100,21,46,52,94,75,100,100,100,87,100,100,100,25,9,13,23,45,40,100,35,36,24,29,37,24,44,11,40,34,20,24,20,7,17,12,30,77,17,13,7,16,12,8,4,25,80,32,16,8,74,9,0,4,13,4,4,100,100,100
0,0,0,0,0,0,0,0,0,100,100,0,4,3,4,4,9,12,12,4,0,0,0,0,0,0,0,4,13,4,9,12,12,12,8,8,12,17,8,9,4,4,0,0,9,4,21,80,30,4,0,4,4,0,4,8,4,0,4,3,8,8,8,8,12,12,12,12,12,9,0,0,0,0,0,0,0,4,8,12,8,8,8,8,11,16,7,4,0,0,0,0,0,4,4,4,4,12,7,8,4,3,21,29,32,28,24,15,12,4,4,8,8,4,0,0,4,3,4,9,8,3,8,4,0,0,4,8,8,12,8,8,12,12,12,12,12,8,4,0,0,4,8,12,8,8,8,8,8,7,12,8,8,4,4,13,11,20,24,11,12,12,12,12,12,8,3,4,8,20,28,28,28,20,16,16,12,12,12,16,16,16,16,15,12,9,4,3,16,16,17,16,16,20,19,19,29,20,25,25,12,12,7,17,12,8,13,9,12,11,20,20,7,20,24,43,41,49,72,38,22,13,8,12,16,16,12,3,3,4,4,8,12,8,4,0,9,0,0,0,0,4,8,9,4,0,0,0,4,4,4,8,12,12,20,16,12,4,4,9,4,9,9,8,12,8,4,4,0,0,4,8,8,3,7,11,7,4,4,8,12,8,8,8,4,4,8,12,4,4,9,13,4,4,8,4,9,3,4,0,0,0,4,4,0,4,12,16,12,3,0,4,9,3,4,0,0,0,0,4,8,8,4,9,4,13,8,0,8,8,9,4,4,3,8,8,12,4,0,9,4,8,17,12,16,16,20,15,11,8,12,12,4,12,20,29,37,41,31,31,23,15,16,8,8,12,21,20,16,12,17,8,13,9,8,12,12,16,12,12,12,16,12,17,12,12,12,8,4,8,4,8,4,4,9,8,8,8,12,20,29,15,16,7,7,12,8,3,8,7,7,8,8,21,20,16,12,3,8,13,13,8,12,12,12,8,4,0,0,0,4,4,17,17,4,12,12,12,12,12,12,12,12,8,4,4,9,4,4,8,16,11,16,11,12,16,11,16,16,11,16,24,23,29,16,15,20,16,16,20,16,16,24,31,31,23,23,28,28,24,25,16,24,23,29,20,21,7,30,23,20,12,4,12,25,20,23,20,12,11,16,7,4,7,16,8,17,25,16,29,20,7,18,9,13,11,16,16,19,27,32,23,29,23,23,24,42,32,28,19,28,33,24,23,28,28,15,21,16,16,16,25,19,19,19,24,19,15,16,16,15,11,12,12,0,12,8,4,4,8,8,8,12,4,4,4,4,8,8,16,23,24,16,12,16,21,16,16,7,16,12,16,19,23,32,31,40,32,36,35,40,35,35,36,49,52,43,27,25,4,8,3,3,4,12,8,4,8,16,21,17,17,8,14,9,12,16,25,16,34,29,25,20,32,39,43,43,39,44,44,39,43,35,45,40,36,28,20,16,16,16,17,16,36,39,48,43,53,44,36,45,23,16,24,40,47,47,43,48,44,39,48,43,52,47,43,48,43,31,29,25,12,13,13,7,17,20,40,43,43,61,69,69,47,49,44,43,35,40,35,40,36,28,23,23,15,20,24,32,36,32,31,36,32,28,33,20,15,15,20,23,28,27,31,40,40,31,37,32,27,28,23,27,32,32,32,48,55,64,73,60,60,74,60,59,67,77,60,52,35,28,32,49,56,60,60,43,32,20,34,24,19,32,32,32,27,36,32,37,23,27,41,32,35,39,36,32,28,25,3,8,33,44,47,51,51,56,56,52,43,43,40,39,39,39,43,31,20,7,4,4,17,12,7,39,35,47,100,100,100,100,100,100,100,100,100,66,51,27,100,79,60,100,100,100,12,35,20,29,27,36,70,67,71,19,32,45,28,19,28,97,53,62,35,23,24,38,27,45,56,60,28,9,34,28,22,44,60,64,67,26,4,34,23,31,8,4,12,11,12,100,100,0
0,0,0,0,0,0,0,0,0,100,100,4,8,12,8,8,8,8,9,4,0,0,0,0,0,0,0,4,3,8,8,8,3,8,12,12,20,11,4,8,7,8,4,4,8,9,25,80,30,4,0,4,8,4,4,4,0,0,4,3,9,4,4,8,9,0,4,4,8,8,4,0,0,0,0,0,4,8,8,9,4,8,8,16,16,12,9,3,0,3,4,0,4,8,3,12,7,7,12,4,0,3,20,28,37,28,25,16,7,12,12,12,9,0,0,0,4,8,12,17,8,0,9,8,8,8,8,4,3,7,3,4,8,8,4,0,0,0,0,0,0,4,8,4,9,12,12,4,9,0,4,9,8,4,4,9,4,3,16,12,4,4,3,3,3,3,3,4,4,16,20,16,17,7,16,12,8,7,20,15,20,20,20,25,15,29,24,20,8,8,13,12,16,16,12,7,21,16,16,11,12,4,7,16,17,13,8,8,4,12,12,16,20,20,12,18,25,35,65,53,24,12,7,7,17,8,4,4,13,8,8,8,4,4,3,9,4,12,12,12,12,12,8,4,9,8,0,3,9,4,0,4,9,3,9,9,8,4,4,12,12,12,8,8,13,9,4,4,8,8,4,0,0,0,9,9,4,8,4,0,4,8,9,4,0,0,4,8,12,12,4,8,4,4,3,9,0,0,0,0,0,0,4,9,8,8,4,9,4,0,4,4,4,12,8,4,0,0,4,3,3,8,12,12,12,7,13,8,8,4,4,8,8,12,12,8,9,3,8,8,4,4,9,7,16,16,11,12,12,12,20,19,15,12,13,4,20,36,36,23,24,19,28,23,29,23,28,20,21,16,20,20,16,12,4,0,0,9,0,4,8,12,16,16,16,12,9,4,12,21,17,3,7,11,12,4,0,4,8,7,21,12,16,16,16,11,12,12,12,11,12,8,7,20,25,7,8,8,12,7,8,8,8,8,8,8,8,4,0,0,0,9,9,8,9,4,4,8,9,8,4,4,8,16,25,21,8,12,12,12,11,16,11,12,12,12,11,12,3,8,8,7,24,23,20,20,20,20,20,20,20,24,20,24,28,28,28,23,27,27,33,12,12,30,20,11,12,7,16,25,25,29,20,20,16,16,20,16,21,20,20,7,9,4,4,12,25,16,12,7,15,20,30,8,12,16,20,28,27,49,39,41,32,32,28,36,39,36,19,24,37,19,20,24,20,12,12,24,20,15,20,19,20,16,16,15,16,11,11,12,22,4,4,8,0,8,4,0,4,8,4,0,4,8,4,4,4,4,4,12,16,20,19,20,24,32,28,15,26,16,24,41,31,36,44,35,36,35,39,39,40,40,36,35,47,61,44,27,28,24,29,20,25,25,24,20,25,24,23,20,7,12,26,4,12,12,20,32,40,45,24,20,41,35,31,36,40,36,23,23,36,36,53,52,43,40,23,20,25,24,24,37,35,39,47,51,68,62,54,47,43,44,45,31,36,45,39,43,47,43,56,51,56,51,56,51,52,44,24,12,8,14,13,8,20,30,24,40,52,48,39,31,27,28,20,28,36,32,32,28,32,28,28,32,32,27,37,23,23,28,32,32,32,27,31,32,20,11,15,23,28,28,28,28,31,39,39,49,39,40,36,27,28,27,44,43,44,35,36,36,35,36,41,48,54,73,55,65,43,49,36,20,28,57,68,59,69,52,42,16,20,23,28,32,27,31,53,48,45,49,43,43,43,39,43,60,56,48,44,41,41,27,36,43,56,47,43,43,47,51,50,65,52,43,43,43,35,37,25,17,8,12,17,18,4,0,0,4,18,85,100,100,100,100,100,100,100,100,100,100,100,100,100,100,100,26,12,24,30,33,38,33,32,16,28,48,43,31,28,45,69,80,40,44,36,31,69,85,57,33,29,33,20,21,78,12,35,100,28,27,30,0,9,13,13,4,8,16,25,100,100,100,100
0,0,0,0,0,0,0,0,0,100,100,100,8,9,9,8,8,8,12,4,0,0,0,0,0,0,0,0,0,0,0,0,4,13,8,8,12,8,4,4,4,4,0,4,3,4,21,23,26,4,4,8,13,8,12,4,0,4,3,8,8,8,9,4,4,13,4,0,0,0,0,0,0,0,4,3,0,12,12,4,9,3,8,21,17,0,8,13,0,9,8,12,12,8,4,4,13,8,12,4,0,9,8,8,8,11,20,16,12,8,8,4,8,3,3,0,8,12,12,11,17,3,12,12,12,16,12,8,8,12,4,0,0,0,0,0,0,4,8,8,8,8,12,8,8,4,4,9,3,3,8,8,8,4,4,12,8,8,12,8,4,4,13,4,0,0,9,4,8,4,9,0,4,4,4,8,12,12,16,25,16,11,16,16,12,16,29,21,8,12,7,12,17,12,8,9,9,8,13,4,4,0,13,17,16,17,9,13,7,12,3,8,16,11,3,8,15,36,57,47,41,20,12,8,4,0,0,4,9,12,8,4,0,4,12,12,12,12,12,12,12,8,4,4,8,9,8,12,4,8,3,8,4,0,4,8,4,4,4,4,4,4,8,12,16,7,8,4,9,9,3,4,0,4,8,8,4,4,4,0,0,4,9,4,0,0,0,0,4,8,12,4,4,3,3,3,4,0,0,0,0,0,4,4,9,9,9,8,8,4,8,8,9,9,4,0,0,0,0,9,0,4,7,12,3,4,4,9,13,4,4,4,4,9,3,4,8,3,13,4,4,4,4,9,8,3,8,12,12,20,23,29,16,16,20,7,9,21,21,7,16,15,24,29,23,32,19,12,3,12,16,20,11,8,8,4,4,8,8,4,0,0,4,8,12,0,8,0,12,24,28,24,16,16,11,21,16,16,8,8,21,8,8,17,7,12,8,11,16,16,7,16,11,7,3,8,3,8,7,12,4,0,0,0,0,4,8,12,8,4,4,3,9,4,4,8,9,8,12,12,4,0,9,12,20,20,11,16,20,24,24,24,16,16,16,16,16,7,8,4,0,9,17,12,16,16,12,20,20,20,28,27,23,25,23,32,27,28,28,32,28,16,13,9,17,7,16,34,29,11,20,32,28,15,16,12,7,16,33,36,27,16,4,4,8,17,8,21,24,24,19,23,32,16,16,20,23,19,24,41,53,52,39,35,27,23,41,23,29,20,20,38,41,23,11,21,20,15,20,15,16,11,15,38,23,15,12,16,11,12,0,9,0,8,8,4,3,4,4,4,0,0,4,8,3,12,12,3,12,12,16,24,24,24,20,28,28,28,33,19,28,36,36,36,39,44,40,44,44,35,31,27,31,48,47,49,27,36,49,57,56,43,31,23,25,23,27,28,25,16,12,21,16,14,20,23,32,31,40,31,23,28,31,41,32,32,32,32,41,31,27,37,36,35,44,36,28,28,27,31,40,36,41,27,49,64,63,65,56,47,40,44,52,48,37,15,28,35,35,40,48,54,40,36,36,40,35,43,50,32,23,33,20,12,20,36,45,36,44,43,49,35,36,36,19,16,29,28,23,28,27,41,32,23,32,31,44,36,27,36,23,15,24,28,28,20,16,8,4,18,16,15,19,19,28,37,36,39,40,31,31,36,36,39,39,48,48,40,32,32,40,40,35,43,56,52,44,31,36,44,48,67,66,68,78,60,60,73,60,66,43,27,16,16,24,39,51,52,43,49,44,48,43,39,47,63,63,59,51,51,43,49,39,40,45,44,47,47,43,47,60,55,56,47,51,60,59,65,52,41,29,20,32,23,16,12,12,12,9,4,4,39,100,100,100,100,100,100,100,100,100,100,100,100,20,28,28,32,36,100,100,45,29,8,8,52,36,24,20,37,36,40,63,39,39,35,20,100,25,16,20,19,29,50,40,39,47,100,61,29,4,3,11,20,16,8,9,4,13,14,100,100,0
0,0,0,0,0,0,0,0,0,100,100,4,4,4,9,12,8,4,3,4,0,0,0,0,0,0,0,0,0,0,0,0,4,13,0,8,12,8,16,16,8,4,4,8,7,17,8,8,8,4,4,12,7,17,8,4,4,8,8,8,3,4,4,8,9,9,4,0,0,0,0,0,0,0,0,9,4,12,12,9,0,4,9,13,13,3,4,12,12,8,8,12,7,8,9,9,8,16,16,16,8,4,9,4,0,13,22,21,12,4,0,4,4,0,9,8,12,12,12,8,9,4,3,4,3,12,17,8,8,9,4,0,0,0,4,8,8,4,9,13,4,9,12,8,4,4,4,4,0,4,9,8,12,4,4,4,4,8,9,9,0,4,9,4,0,4,4,8,8,0,3,4,4,4,0,4,3,3,8,8,8,12,3,12,12,12,4,4,13,4,4,0,4,7,11,17,3,3,3,13,4,4,11,12,4,13,12,11,16,12,4,0,4,8,8,8,25,31,40,31,24,12,3,8,4,0,4,8,8,3,4,4,3,4,9,4,4,0,0,0,0,0,0,0,0,4,13,13,8,8,8,3,12,12,12,4,4,8,13,4,8,12,7,21,16,12,8,0,8,8,9,0,0,0,0,0,0,4,12,8,4,4,13,4,0,0,0,0,0,0,4,8,4,9,0,0,0,0,4,3,4,0,4,9,4,4,13,9,4,4,8,4,4,9,8,3,3,4,4,0,4,0,4,12,12,12,8,8,12,4,0,4,9,12,8,9,4,4,13,4,4,8,4,8,4,4,4,8,12,16,20,21,21,19,28,15,16,16,12,4,3,12,12,12,11,16,16,11,8,4,8,17,12,12,7,8,8,8,12,16,16,12,12,12,17,8,4,8,12,16,20,20,17,8,16,20,24,23,19,25,20,16,8,9,4,4,12,12,9,4,12,16,17,9,4,8,12,7,12,8,4,4,8,8,4,0,4,8,12,12,8,4,4,4,4,8,17,7,12,11,12,4,9,8,8,7,11,12,12,20,29,20,16,16,16,12,4,4,8,12,16,17,4,8,11,16,29,23,32,23,23,33,24,32,36,31,31,27,23,23,27,32,30,8,9,4,12,29,23,20,24,28,16,7,7,7,11,23,32,37,29,24,24,16,7,13,7,20,24,28,36,36,23,20,15,15,29,27,41,37,40,43,43,48,35,46,32,45,40,36,32,40,40,32,20,19,24,16,12,16,20,29,23,23,29,12,7,12,17,8,3,9,4,3,13,4,8,8,9,4,4,3,8,4,8,20,24,24,20,20,23,23,24,24,20,20,23,27,41,31,28,24,28,36,31,40,39,40,36,44,52,48,35,35,50,41,41,39,43,43,58,45,27,28,20,20,29,12,8,8,4,9,4,8,12,21,17,21,25,20,23,32,32,31,40,35,41,31,35,36,32,24,25,17,23,14,13,16,28,35,43,36,23,38,32,41,41,32,32,36,32,36,35,53,48,58,36,23,28,32,28,24,29,23,32,36,44,70,64,73,68,91,77,88,70,55,66,39,49,40,36,35,35,28,16,34,32,35,35,39,39,39,35,31,27,28,28,32,27,32,32,37,28,28,23,15,13,20,32,28,8,16,25,15,15,15,19,27,32,27,32,31,41,36,32,27,36,35,43,44,39,43,52,43,43,43,60,64,69,55,67,84,80,55,48,40,27,41,52,51,57,39,46,51,62,67,71,69,61,56,52,40,39,47,52,53,53,45,40,36,32,32,32,27,28,27,41,40,48,47,43,43,48,47,50,63,72,62,67,60,57,48,44,32,23,20,16,7,8,17,16,8,8,11,89,100,100,100,100,100,100,100,100,100,23,36,40,36,65,96,98,60,37,61,100,31,32,28,41,35,43,52,55,56,31,26,100,59,23,18,16,14,7,4,0,4,38,24,12,23,25,24,15,12,39,35,39,21,33,100,100,100,0
0,0,0,0,0,0,0,0,100,100,100,100,4,8,8,8,12,4,0,0,0,0,0,0,0,0,0,0,4,3,4,0,4,3,0,8,8,21,24,22,3,4,8,8,8,16,17,9,4,4,8,4,4,4,0,0,0,4,9,3,4,0,4,8,12,8,12,12,8,4,0,0,0,0,4,0,4,8,8,4,13,8,17,0,12,12,4,12,12,8,4,0,4,13,8,8,4,4,9,17,8,8,8,12,12,20,24,16,4,8,4,4,4,4,8,12,17,12,8,4,4,4,0,0,4,8,9,9,4,4,12,12,8,4,0,9,9,4,8,12,8,7,12,8,8,12,8,8,8,3,12,12,8,4,12,8,8,12,12,8,4,4,13,4,0,4,8,8,3,3,4,0,4,4,0,4,3,4,4,8,7,8,4,9,8,8,4,4,0,4,4,0,4,12,17,12,7,12,11,20,29,16,12,16,20,20,12,8,4,4,4,0,4,8,7,12,11,24,23,20,20,11,8,9,3,4,4,8,4,0,0,4,12,8,9,4,0,4,3,4,0,0,0,0,4,12,11,7,4,4,8,7,12,16,16,7,9,9,3,4,12,8,4,9,8,8,4,0,0,4,3,4,0,0,4,3,4,4,8,12,4,4,4,12,12,8,4,0,4,3,4,4,4,8,8,4,0,0,0,13,3,4,4,12,8,9,0,9,8,9,4,0,4,13,4,4,13,4,4,12,12,12,12,8,11,16,12,7,8,4,4,8,12,9,9,4,4,4,3,4,4,4,4,4,8,4,0,0,4,8,4,8,16,29,24,20,20,15,11,3,0,9,4,8,12,4,9,12,17,8,8,8,12,16,20,20,29,20,15,20,16,11,16,12,8,9,9,12,8,4,0,0,4,12,16,16,11,20,29,29,20,12,8,9,4,4,3,4,9,8,7,8,4,9,12,7,7,12,4,4,17,16,12,12,12,8,4,0,4,8,9,4,8,3,8,8,3,12,3,12,8,4,12,12,12,12,12,12,12,4,4,4,12,11,12,4,4,17,24,32,28,16,17,11,20,23,23,33,27,28,20,20,29,41,44,39,40,35,36,27,36,36,28,7,9,4,4,4,7,16,12,21,16,16,12,16,12,21,21,18,8,21,25,25,8,12,7,12,20,20,33,43,29,20,24,16,20,36,51,51,44,31,39,43,51,61,48,51,55,65,47,48,35,23,29,20,15,29,32,28,32,27,24,16,3,4,7,21,7,4,4,12,12,4,9,7,15,20,21,4,4,12,8,9,16,28,31,35,32,20,24,19,23,27,41,27,27,27,27,32,36,35,40,40,31,32,31,39,52,51,56,52,44,44,23,28,39,39,32,20,12,12,16,20,17,4,14,0,9,13,4,4,17,21,17,9,18,17,16,24,27,40,40,35,36,27,28,28,24,25,16,8,4,9,13,9,26,37,36,32,38,29,23,27,24,12,16,16,15,24,23,32,23,32,43,56,47,58,49,44,48,60,61,44,40,43,39,44,56,67,80,79,93,84,76,64,60,47,44,39,36,41,36,45,58,58,44,44,39,40,41,27,27,28,28,28,37,32,40,36,31,35,35,32,28,20,3,34,43,24,12,13,11,24,23,23,29,23,32,31,36,27,23,32,31,36,36,35,39,35,39,48,47,48,48,51,63,80,83,79,78,83,70,51,53,36,32,27,31,31,31,52,72,98,79,80,93,91,100,78,70,90,85,74,94,60,40,42,32,32,29,24,23,31,36,32,28,37,40,49,44,39,56,55,51,52,56,55,67,63,68,54,47,35,23,20,16,12,8,16,24,20,12,21,20,24,53,100,100,100,100,100,100,100,23,23,33,41,27,31,27,41,56,92,44,73,40,39,52,47,47,44,44,49,75,92,100,59,20,16,68,12,12,8,3,47,87,57,56,24,28,33,16,4,8,91,55,39,57,21,100,100,100
0,0,0,0,0,0,0,0,0,100,100,4,4,4,9,8,12,4,0,0,0,0,0,0,0,0,0,0,4,13,4,0,0,0,4,8,22,24,59,4,0,4,4,4,4,12,12,9,4,8,8,3,8,4,0,0,4,8,4,4,3,4,0,4,3,8,7,16,12,4,0,0,0,4,3,9,0,0,0,4,8,16,11,12,0,13,12,4,4,3,4,4,8,8,13,4,4,8,12,12,8,4,8,12,11,16,20,12,0,8,8,4,4,4,8,8,9,4,3,0,8,4,3,4,4,4,4,13,4,4,8,12,12,8,8,4,8,4,4,3,3,8,12,12,7,7,8,8,12,3,3,4,4,8,8,8,4,8,4,0,0,4,3,4,4,8,8,4,0,9,0,0,4,4,0,4,13,4,4,13,9,0,4,4,0,0,0,4,13,0,8,4,0,4,4,12,7,12,7,21,24,15,12,16,21,12,8,4,0,4,12,12,12,12,3,8,12,17,7,7,17,9,4,9,13,4,4,8,4,4,3,9,9,8,9,4,0,0,9,0,0,0,0,4,3,9,4,0,0,0,4,8,4,9,12,12,12,8,4,4,8,4,4,8,4,0,0,0,0,0,0,0,0,0,0,9,8,12,8,4,4,0,9,9,9,13,4,0,0,9,4,8,4,4,13,4,0,4,7,16,17,4,4,3,4,0,9,4,8,12,4,0,4,3,4,4,13,4,4,9,8,12,7,7,12,12,12,12,4,0,0,4,8,12,8,9,4,4,3,4,4,9,8,4,4,4,0,0,4,8,4,4,3,8,12,11,20,20,16,16,12,16,12,16,21,12,7,8,3,12,16,20,15,15,20,29,27,27,23,20,20,25,20,29,25,13,4,12,8,4,0,0,4,3,8,8,4,4,8,12,21,7,7,17,4,0,0,4,4,12,12,8,8,12,12,12,4,4,4,12,16,20,12,12,16,16,12,4,4,3,4,9,8,3,12,12,3,8,4,9,8,8,8,7,16,7,3,8,8,4,4,12,11,12,4,4,12,24,35,52,36,20,21,16,20,24,16,12,20,20,20,24,32,31,45,44,43,48,44,36,36,36,27,25,8,12,12,8,8,3,3,8,16,24,20,16,17,4,0,0,4,4,0,9,12,17,12,15,24,15,12,21,38,23,24,23,32,36,49,44,41,32,35,43,60,67,68,47,61,47,44,40,45,27,33,25,20,20,33,32,27,27,28,15,12,17,16,20,20,20,17,8,21,16,30,16,25,26,8,4,4,9,12,16,20,23,36,41,23,24,20,23,28,32,31,32,23,27,32,40,48,43,47,39,31,31,31,45,44,44,40,35,44,54,31,31,40,35,52,44,38,16,12,12,12,9,4,3,8,9,14,13,11,20,11,15,24,20,16,24,23,27,36,27,32,41,36,32,24,12,11,33,28,24,20,23,23,33,33,20,16,17,25,33,19,16,11,16,15,20,24,19,23,27,31,35,48,55,59,55,51,65,65,61,43,39,40,39,43,51,51,47,52,39,39,43,47,43,40,45,44,40,56,71,88,67,43,40,36,23,15,24,24,20,20,27,35,35,40,41,27,28,28,25,11,26,17,26,26,18,4,13,16,28,28,28,37,31,44,49,40,31,40,35,36,40,43,43,35,41,36,40,35,32,32,45,43,61,68,72,76,67,64,56,43,36,32,28,33,24,20,36,60,80,67,55,60,80,92,70,88,87,79,94,80,80,75,99,63,65,61,56,61,47,43,66,56,49,23,19,31,43,50,69,47,43,43,60,63,67,58,50,47,43,44,41,19,20,25,16,20,20,28,37,32,27,36,31,83,78,100,72,48,24,23,33,34,36,32,37,29,23,55,50,100,31,40,43,52,56,57,36,29,38,28,100,55,47,4,51,52,36,20,4,24,34,100,77,49,53,12,12,23,21,34,49,25,55,16,58,100,100,100
0,0,0,0,0,0,0,0,100,100,8,9,4,8,12,12,8,4,0,0,0,0,0,0,0,0,0,0,4,13,4,0,0,0,4,17,12,75,44,31,28,21,8,4,3,12,7,9,4,8,3,8,8,3,3,4,0,4,4,8,12,4,0,0,0,4,3,9,4,4,0,0,4,8,8,4,4,0,0,4,8,4,9,13,0,8,8,4,4,13,4,4,8,8,12,12,12,7,7,12,8,4,4,9,8,8,4,0,0,4,4,4,12,12,7,8,3,3,9,4,8,4,13,8,8,4,4,3,4,0,0,0,4,12,12,12,4,0,0,0,4,8,12,11,12,4,4,4,4,4,0,0,0,4,4,4,13,9,0,0,0,0,0,0,4,8,4,0,4,3,4,4,8,4,0,4,13,4,0,9,8,4,4,4,4,3,4,4,13,3,8,4,4,8,4,3,4,13,3,4,3,11,11,3,4,4,4,8,8,4,8,12,7,12,12,4,0,4,12,12,4,8,8,13,8,8,3,8,4,0,9,4,12,12,9,4,4,4,4,4,0,0,0,4,13,8,8,4,4,3,8,8,9,4,4,4,4,3,8,12,9,4,4,9,4,0,4,3,4,0,0,0,0,0,4,3,4,12,12,3,8,4,4,12,12,9,4,4,8,8,4,4,0,4,13,4,4,8,12,8,8,12,12,8,4,4,3,4,4,3,4,0,0,0,0,4,3,4,4,4,0,0,4,8,4,0,0,4,4,0,4,3,4,0,0,4,9,8,12,8,3,12,8,0,8,4,0,0,4,4,0,0,0,0,4,12,21,12,17,12,16,20,19,20,20,12,7,8,4,4,3,18,12,12,16,11,20,20,20,24,27,32,27,36,27,28,24,24,15,12,8,8,8,8,8,12,12,0,3,4,4,8,11,20,16,8,4,0,9,4,8,12,8,9,0,4,4,4,4,8,8,8,8,12,12,17,8,4,0,9,8,13,8,9,4,4,8,8,4,9,12,8,4,8,12,8,8,12,12,12,4,4,12,7,12,12,8,3,22,49,25,20,16,8,12,16,25,11,8,12,16,19,36,31,32,36,35,44,39,40,36,23,29,19,20,20,20,20,7,0,8,4,12,16,21,12,8,4,4,13,0,12,8,9,3,12,11,16,16,16,15,29,37,27,27,32,27,19,25,20,28,53,52,47,47,73,59,52,43,61,65,40,27,36,46,28,32,41,32,28,41,40,35,36,32,28,20,16,16,20,20,23,28,29,19,11,9,3,9,4,9,7,11,12,12,20,32,23,32,32,20,24,23,23,23,23,27,40,47,64,59,59,55,51,57,39,35,36,36,36,40,43,43,27,32,27,23,31,48,57,36,24,20,15,20,16,12,16,16,26,3,9,8,12,25,15,16,3,9,16,24,20,20,27,36,27,33,28,23,23,32,36,36,23,28,28,32,33,38,28,20,28,45,33,15,20,11,20,16,16,20,23,23,23,27,32,27,32,41,49,39,35,35,43,52,35,27,32,41,40,54,44,44,53,39,35,32,32,32,31,35,48,51,73,73,65,31,29,21,20,24,19,24,29,20,15,24,24,20,16,24,19,11,11,20,16,29,59,52,62,45,24,15,19,27,27,49,48,39,40,40,35,35,40,36,32,32,36,44,49,27,28,28,28,28,27,31,35,39,39,48,39,40,40,54,39,53,32,15,25,50,56,64,51,56,52,47,47,56,55,64,68,68,54,67,79,91,86,83,81,68,60,60,52,52,51,66,56,65,65,47,39,40,44,47,51,51,50,60,55,59,68,63,64,55,47,44,40,40,32,24,16,27,40,31,32,36,31,36,36,32,31,8,26,27,40,35,27,100,29,25,43,28,58,59,61,35,40,40,36,37,36,24,16,23,16,13,20,68,29,28,27,17,22,73,46,71,63,38,47,90,38,56,8,7,18,43,95,100,66,60,100,100
