0,0,0,0,0,0,0,0,100,100,12,8,9,8,0,0,0,4,12,8,0,4,0,12,12,0,0,12,12,4,20,24,16,12,12,0,4,0,8,9,8,0,0,0,8,13,8,8,8,8,12,12,8,8,8,4,4,8,9,8,4,0,0,0,0,4,0,4,0,0,4,4,4,4,0,0,3,9,3,4,4,0,4,3,9,0,8,9,12,4,12,9,12,3,9,3,4,12,12,4,4,4,0,0,8,12,8,12,11,16,12,12,8,0,0,12,9,12,8,16,31,52,54,36,36,24,26,27,49,51,49,29,15,24,40,52,40,36,31,57,59,52,36,28,20,11,7,8,8,9,9,8,16,16,8,0,0,0,4,4,4,4,12,12,13,20,21,12,9,54,43,13,24,32,41,17,8,9,13,8,3,17,21,8,21,17,4,4,4,0,0,0,0,0,0,0,0,0,0,4,4,4,4,0,0,0,0,4,0,4,0,12,15,19,21,8,12,4,0,12,11,16,13,3,0,12,16,16,16,4,28,33,0,16,22,25,29,16,0,8,12,16,15,15,12,4,21,24,20,16,29,24,12,29,27,35,45,24,25,20,20,25,24,20,13,13,23,27,23,12,4,20,29,24,19,40,40,25,4,12,23,32,20,8,16,19,23,15,7,16,20,7,17,16,9,12,4,16,16,9,12,0,0,0,12,9,12,8,12,4,0,0,0,3,9,4,12,3,3,12,20,16,12,12,12,4,0,20,23,19,20,9,12,16,29,23,8,0,8,34,47,51,43,9,28,18,23,36,42,100,100,47,51,76,59,24,12,8,12,8,8,8,4,4,3,12,11,12,3,4,4,8,7,8,13,7,3,17,21,24,12,11,20,16,29,24,11,16,4,16,11,12,12,15,19,23,20,3,16,20,11,12,4,8,8,12,16,16,20,17,8,11,12,0,8,12,16,24,21,8,9,9,16,16,22,29,20,12,4,8,17,12,12,12,9,8,12,8,13,12,8,4,8,9,3,4,3,9,8,8,9,4,12,4,0,0,0,12,12,0,4,0,7,9,8,9,12,12,9,8,12,12,8,8,8,8,8,9,4,8,4,0,4,8,8,4,12,16,21,27,32,29,12,12,12,9,9,16,8,16,12,37,48,40,44,56,52,36,44,45,31,43,39,35,36,25,16,27,35,35,40,40,40,32,32,27,28,16,20,20,16,23,33,17,8,3,8,4,8,4,8,4,4,9,8,4,16,8,12,12,0,0,0,0,8,12,3,0,0,4,0,4,16,21,8,12,12,8,12,12,8,12,16,12,7,7,24,36,48,56,77,67,43,29,17,38,57,59,59,50,51,47,78,83,63,63,67,58,67,75,67,80,75,71,75,69,47,51,43,52,67,70,23,12,9,7,20,20,35,48,39,40,23,43,61,44,35,39,43,35,36,43,43,40,27,31,43,47,40,35,40,27,19,12,8,8,12,15,28,31,24,29,27,28,40,48,52,51,48,60,59,36,15,18,12,13,12,13,12,4,9,16,16,9,11,12,8,13,13,29,28,12,7,16,17,13,4,4,28,55,100,100,100,100,100,100,100,100,100,100,100,28,100,21,100,30,43,72,54,29,78,66,99,90,100,12,71,90,81,74,100,17,47,44,85,8,8,9,8,9,21,12,12,18,12,4,9,4,8,0,3,9,3,4,12,8,3,9,4,4,47,4,47,0,4,8,0,8,12,18,16,18,18,29,20,20,75,64,38,98,73,39,42,18,78,44,16,16,18,40,70,55,100,32,34,78,42,43,33,100,84,100,70,44,16,4,12,18,17,12,12,16,3,16,21,8,16,21,7,16,29,20,25,23,32,27,24,32,39,44,35,39,40,28,32,31,36,12,27,25,14,29,60,32,44,68,73,100,100,71,67,67,71,65,17,100,90,32,25,40,43,63,100,100,100,0,0,0,0,0,0,0,0
0,0,0,0,0,0,0,0,100,100,12,12,9,12,0,0,0,0,8,9,9,8,0,12,12,4,0,12,12,8,16,16,7,11,13,4,8,4,4,0,4,4,0,4,8,4,9,12,8,4,4,4,4,4,4,9,12,8,9,12,4,0,0,0,0,3,9,3,4,0,8,12,12,8,0,0,4,4,4,4,8,4,8,4,3,4,4,9,8,8,12,12,8,4,0,4,0,8,12,7,9,8,0,0,8,12,3,12,16,12,4,4,4,0,4,12,9,12,12,15,27,48,50,18,37,28,21,23,36,40,40,32,28,23,32,35,48,36,42,52,55,52,43,40,20,20,20,12,9,3,12,25,24,12,4,0,0,0,8,13,12,4,4,9,4,11,12,12,12,16,24,25,13,16,25,13,7,13,9,8,4,4,25,21,29,33,8,8,8,4,4,4,0,0,0,0,0,0,0,3,13,13,3,0,0,0,0,0,0,0,8,20,20,16,4,12,12,3,13,25,24,16,12,30,13,9,8,8,12,8,34,27,8,16,18,20,16,7,8,17,16,11,15,19,28,21,16,20,28,20,20,25,16,28,23,40,32,15,11,25,19,20,24,19,13,13,28,23,19,17,8,26,36,23,20,45,36,8,4,8,12,24,12,3,12,20,32,15,17,24,20,4,8,17,12,12,17,20,16,12,12,0,0,0,12,9,12,12,12,0,4,4,4,3,0,4,4,16,21,25,20,15,16,12,12,3,9,20,24,11,12,12,4,16,28,20,12,3,8,21,31,44,28,37,47,35,23,12,49,96,96,36,73,100,85,29,4,9,4,8,12,8,3,9,17,16,12,16,17,9,4,9,3,9,8,4,0,4,12,11,4,12,20,25,16,21,12,12,4,21,15,12,12,15,15,20,15,7,16,16,11,12,3,12,12,12,12,12,7,8,12,20,21,4,8,16,20,20,20,8,8,17,12,8,16,20,12,12,4,4,3,12,7,12,4,12,12,12,4,3,3,8,8,4,0,3,9,8,7,8,8,13,8,4,4,0,4,12,12,8,13,8,3,4,0,8,9,8,8,0,12,15,12,4,0,3,8,8,3,4,4,8,9,7,8,12,20,21,16,20,36,33,4,8,12,13,4,3,3,21,13,35,49,35,43,60,44,40,43,40,49,52,43,43,40,29,16,31,44,40,31,44,47,40,28,27,24,21,29,19,20,28,23,12,8,12,4,4,12,4,12,4,0,4,4,12,11,12,12,12,0,0,0,0,8,12,4,0,0,8,9,8,12,16,16,7,8,9,12,13,8,16,20,12,8,8,16,46,52,51,52,43,43,32,40,40,43,54,59,47,56,50,72,95,85,64,67,58,63,71,81,66,80,71,74,59,47,47,47,43,64,59,39,38,13,13,16,21,72,55,39,27,28,44,43,43,39,48,56,43,35,44,39,27,36,39,35,40,48,47,40,28,16,4,17,16,9,15,23,27,19,36,36,23,49,47,43,55,44,44,68,63,20,9,16,12,4,0,4,4,4,12,16,9,11,12,8,4,3,24,20,4,4,8,20,16,12,12,16,32,32,100,100,92,100,100,100,100,100,100,100,100,100,100,100,32,16,20,37,92,100,100,100,88,100,57,100,63,41,74,68,69,39,51,63,33,14,33,14,14,16,26,13,9,13,8,0,17,12,4,8,0,4,0,8,12,9,4,9,12,4,8,4,4,8,4,4,4,0,8,12,8,4,16,15,45,42,25,69,59,47,3,12,14,16,46,40,55,63,100,100,30,100,59,61,90,83,16,86,100,100,79,9,55,16,64,8,0,9,8,21,16,3,8,9,21,23,12,26,24,20,29,18,24,56,37,20,35,44,44,47,45,23,28,27,35,36,3,18,12,21,55,30,72,70,71,58,98,100,66,75,63,55,58,58,93,94,40,43,34,100,47,100,100,100,0,0,0,0,0,0,0,0
0,0,0,0,0,0,0,0,100,100,12,8,9,8,0,0,0,0,4,0,8,12,4,12,12,3,9,8,12,12,12,12,7,16,7,9,12,3,0,0,0,8,9,8,3,9,4,12,4,0,0,0,0,0,0,8,12,12,13,12,3,0,0,0,0,4,3,9,3,4,12,8,12,12,4,4,4,8,4,4,8,4,12,8,4,4,4,0,4,8,9,8,4,4,4,4,4,4,12,11,9,7,0,4,8,16,12,8,16,12,0,0,8,9,4,8,12,8,12,16,16,37,28,11,17,16,7,20,23,27,32,31,27,28,20,36,60,54,28,44,39,47,56,52,32,23,20,8,4,4,16,32,28,23,16,4,4,4,8,4,8,4,4,4,4,12,12,12,12,4,8,20,29,9,21,8,8,4,0,3,16,25,32,43,60,44,20,3,0,4,12,8,0,0,4,4,4,4,4,4,4,4,4,0,0,0,0,0,0,0,12,25,16,16,4,12,12,0,16,19,24,21,17,12,8,4,0,7,12,4,21,23,17,13,8,11,17,21,8,3,12,16,15,28,32,28,24,20,28,25,12,16,29,31,28,32,28,20,15,20,23,20,20,29,17,7,23,32,21,9,12,12,36,54,29,31,42,13,8,8,25,15,4,9,17,29,27,25,12,20,16,8,9,4,12,8,12,15,12,12,12,0,0,0,12,9,12,12,7,0,4,13,13,3,4,8,4,16,16,12,16,20,16,12,12,4,0,12,16,12,16,16,8,16,28,25,17,8,3,4,16,36,36,36,56,52,30,9,35,85,91,53,54,91,64,20,9,9,4,16,21,13,8,4,12,16,12,12,12,0,7,12,12,12,8,9,8,0,3,12,9,9,29,28,11,7,12,8,4,12,16,17,12,20,16,20,20,16,12,12,16,16,16,12,9,4,8,8,3,12,25,33,20,8,8,16,20,16,11,22,16,21,13,12,12,13,0,3,4,8,8,8,17,8,9,8,9,8,8,9,8,4,3,12,8,0,4,8,12,4,4,3,13,4,8,9,8,12,8,12,9,9,8,9,12,3,4,4,7,8,12,20,21,4,12,12,8,0,3,4,8,8,8,12,7,16,16,8,17,11,32,24,4,9,13,17,9,9,17,16,22,8,32,23,58,63,52,35,43,43,47,56,48,48,49,23,32,49,52,40,45,44,52,44,27,31,28,16,20,20,19,28,24,12,7,12,4,0,8,9,8,4,0,4,0,12,11,12,12,12,4,0,0,0,8,12,4,4,0,8,9,8,8,8,12,12,4,4,3,0,4,8,12,12,8,8,12,41,43,40,32,45,40,44,43,40,48,55,64,60,50,59,75,98,100,55,71,69,56,58,67,66,80,75,84,68,55,47,47,39,70,55,43,31,16,4,16,24,43,61,40,32,24,36,48,52,47,47,56,47,43,35,31,27,36,44,35,31,47,56,40,32,16,8,17,16,4,15,23,28,23,31,40,32,39,52,39,55,54,24,61,56,33,18,16,8,8,8,4,8,4,8,7,13,11,12,4,0,12,16,13,16,16,13,16,16,20,29,13,21,29,16,100,100,100,100,100,100,100,100,100,100,100,100,100,64,24,100,100,100,98,100,54,100,62,100,100,95,100,100,56,100,49,49,31,56,89,63,13,20,13,16,12,3,9,7,17,21,12,17,12,9,9,9,9,9,4,8,18,100,8,100,0,100,0,4,4,4,4,4,4,16,13,16,12,29,36,52,67,43,13,12,14,16,46,20,84,97,100,100,100,100,100,100,100,9,12,74,79,56,77,52,12,47,100,62,3,8,16,8,9,4,12,18,8,16,23,21,16,20,20,19,12,85,59,31,20,41,36,56,70,28,37,23,23,32,47,74,48,12,61,47,93,27,46,45,100,100,74,74,70,76,47,56,100,95,55,47,51,50,43,99,87,100,100,100,0,0,0,0,0,0,0
0,0,0,0,0,0,0,0,100,100,4,9,3,4,0,0,0,0,0,0,4,4,12,11,12,3,4,12,12,8,12,12,12,16,11,8,4,4,4,0,0,12,9,12,4,0,12,12,0,0,0,0,0,4,0,12,12,12,8,12,9,4,4,4,4,4,3,0,4,3,12,8,12,9,12,4,4,3,4,4,4,4,12,4,9,8,4,0,0,8,0,8,0,8,13,12,3,0,8,12,4,7,9,8,8,11,7,3,7,12,4,4,12,12,0,4,12,8,12,12,12,20,16,21,9,4,12,24,23,23,27,32,27,29,16,40,54,57,23,27,40,47,51,48,36,36,33,18,0,4,29,35,28,18,16,8,8,4,8,8,4,3,9,9,13,11,12,12,12,4,3,20,24,16,13,12,0,4,0,4,12,20,36,29,45,58,21,8,8,8,11,16,4,4,12,7,4,3,3,12,8,4,0,4,0,0,0,0,0,0,12,12,12,16,12,7,12,8,16,30,17,8,3,9,13,0,9,12,12,8,12,16,7,17,34,20,7,8,4,8,12,20,20,36,32,41,35,24,19,25,8,7,29,36,23,27,23,23,23,20,15,20,16,16,8,12,24,28,21,16,12,17,58,51,32,23,29,12,9,20,20,20,13,4,12,24,24,16,16,8,8,9,8,4,3,4,4,12,12,12,12,0,4,0,8,9,4,12,8,9,4,0,3,0,7,12,4,16,16,4,16,16,16,16,8,4,4,3,16,16,20,25,9,16,20,20,7,12,8,0,4,25,23,40,39,25,3,12,25,37,20,33,38,32,41,16,8,8,13,21,20,12,4,8,8,7,8,13,12,8,16,21,13,11,9,13,12,4,8,13,4,3,21,24,16,8,12,8,4,0,12,16,29,20,21,29,19,12,4,21,16,20,29,21,9,8,8,9,17,12,11,19,20,8,8,20,20,12,4,3,3,7,12,17,4,4,8,8,8,3,0,4,8,12,4,4,4,8,8,8,9,9,8,8,9,8,8,9,8,0,4,8,8,4,4,12,9,12,3,12,4,9,8,3,13,13,4,12,7,0,3,16,8,12,12,8,9,8,3,13,8,9,4,9,25,16,12,12,4,25,27,25,9,9,13,18,9,8,9,11,8,17,31,38,41,60,59,56,43,47,47,52,43,43,40,39,44,48,61,53,40,36,40,43,31,31,28,15,15,15,20,23,20,7,12,12,3,0,8,0,8,3,9,0,9,16,16,12,3,8,8,4,4,0,4,4,8,8,3,4,4,8,12,4,8,9,4,8,4,4,8,4,7,7,7,7,16,40,47,37,11,24,45,52,43,35,43,51,64,63,58,63,70,90,96,60,55,60,51,63,72,76,84,83,70,71,67,51,47,56,65,57,52,52,25,4,16,32,40,40,31,36,23,45,51,51,47,51,47,43,52,49,31,27,31,35,36,31,43,47,40,31,20,16,17,8,4,20,27,32,28,41,43,40,40,43,48,51,46,11,40,52,27,21,9,9,8,4,0,4,0,8,13,8,12,7,0,4,20,21,12,16,11,4,12,12,24,27,25,4,12,16,18,100,100,100,100,100,100,100,100,100,100,100,100,100,100,100,100,100,100,100,68,62,100,100,100,100,100,100,100,100,100,92,34,36,70,67,52,61,13,13,16,9,0,8,16,20,16,21,17,9,8,13,4,13,81,9,81,100,100,100,100,100,3,3,17,9,13,12,4,7,18,13,8,33,72,13,99,100,35,63,21,68,38,16,73,100,65,100,100,100,100,100,32,18,8,81,100,64,61,8,27,45,11,71,17,17,32,34,17,12,9,4,9,21,20,24,16,11,24,19,21,28,52,31,24,36,27,84,70,28,47,20,16,28,55,47,97,100,50,66,56,44,68,88,100,100,86,93,63,70,76,67,58,89,55,51,47,35,36,12,59,100,100,100,0,0,0,0,0,0,0
0,0,0,0,0,0,0,100,100,100,9,4,4,4,0,0,0,0,0,0,0,0,12,12,4,12,8,12,12,8,8,16,20,16,21,8,8,9,8,0,0,8,9,8,0,0,8,12,4,0,0,0,0,3,9,8,12,12,12,8,4,8,8,4,8,8,8,4,0,8,16,3,7,9,7,0,4,8,9,8,0,3,12,13,8,12,8,0,0,3,9,3,0,8,9,8,4,0,4,12,8,12,9,12,12,16,12,9,3,3,12,8,8,12,4,4,12,8,12,12,12,15,12,8,4,13,11,23,32,20,19,24,32,16,25,40,56,61,41,23,45,51,43,40,44,35,24,12,16,12,21,44,47,12,12,7,8,9,11,13,8,4,8,8,4,7,7,17,16,3,8,11,16,20,18,12,4,8,9,4,3,16,27,34,54,44,4,12,4,4,12,11,12,8,16,20,18,30,12,12,8,3,9,3,0,0,0,0,0,4,0,3,12,11,16,17,8,4,4,4,17,16,7,12,8,0,4,4,9,4,7,12,16,23,31,29,4,12,16,12,13,24,24,31,45,35,48,29,16,11,7,7,16,23,36,32,24,28,32,25,16,20,16,12,4,13,29,23,13,25,16,37,43,47,41,11,12,0,20,28,16,16,8,4,12,11,20,16,17,9,9,8,4,8,8,4,4,12,8,12,9,9,8,4,4,4,12,12,4,4,4,8,13,12,12,13,4,17,16,8,20,24,20,21,8,8,12,12,16,15,20,15,4,12,11,15,12,8,9,9,8,12,25,28,27,16,4,17,13,18,13,26,22,4,12,11,13,4,9,8,12,12,8,4,9,17,3,8,12,3,4,7,12,21,7,25,21,16,7,4,8,16,17,16,17,4,7,12,4,8,13,28,36,29,17,12,20,16,3,16,20,16,15,11,12,4,8,4,11,16,7,19,29,9,9,20,28,18,8,8,12,4,3,4,4,4,4,4,8,12,13,8,8,12,4,9,8,12,0,4,0,8,12,3,0,4,4,4,3,4,8,8,4,4,0,8,9,8,3,12,9,0,8,4,3,17,9,7,17,9,8,4,4,8,12,4,3,16,9,4,8,4,4,4,11,16,12,7,0,20,28,16,8,12,9,4,9,12,17,8,8,12,41,36,27,44,60,65,51,66,43,47,65,47,53,52,43,39,43,56,53,27,36,39,39,36,28,24,20,20,20,15,20,12,16,20,8,4,8,9,7,4,4,4,4,12,11,12,4,3,4,8,8,4,4,4,8,12,7,9,3,12,12,0,4,0,4,4,4,4,4,4,7,7,7,7,24,44,44,25,7,20,36,43,48,36,52,47,60,67,63,63,71,87,87,77,47,56,68,63,67,71,70,79,67,75,75,56,43,68,56,49,68,64,29,0,20,32,32,37,49,43,32,45,56,52,52,43,47,40,53,51,45,27,36,32,32,36,48,47,43,40,19,15,8,3,9,29,45,31,27,32,40,40,45,47,52,40,19,29,36,43,36,16,12,4,4,0,4,0,4,12,9,9,12,8,9,3,20,21,20,20,16,8,8,12,24,32,20,12,13,13,3,4,53,89,100,100,100,100,100,100,100,100,100,100,100,100,100,100,100,100,78,100,100,100,100,49,100,100,71,100,100,59,52,30,64,100,100,87,43,34,47,43,48,12,9,24,46,4,8,13,9,16,27,7,91,100,90,100,100,100,98,100,100,47,55,57,3,12,13,14,18,14,54,43,92,100,100,23,100,73,64,22,63,55,80,72,77,100,100,8,100,32,54,24,9,76,32,72,67,56,64,28,23,16,3,4,32,38,17,16,17,0,7,7,16,26,16,27,23,19,20,32,33,32,39,43,43,40,27,40,63,81,52,100,72,31,73,27,100,100,42,85,100,59,100,100,60,76,76,100,88,53,54,72,60,51,47,48,36,92,61,18,100,100,0,0,0,0,0,0,0
0,0,0,0,0,0,0,100,100,100,8,3,9,3,0,0,0,0,0,0,0,0,8,12,4,12,12,12,12,3,13,21,20,16,11,8,8,9,8,0,0,4,0,4,0,0,4,12,8,0,4,4,0,3,0,8,12,12,12,4,0,3,0,4,4,3,7,8,4,8,11,13,8,4,8,9,8,12,9,12,4,4,4,4,4,12,7,4,4,3,4,4,4,4,0,4,0,0,0,8,12,8,9,8,8,12,3,4,12,8,12,12,0,4,8,8,8,7,12,8,8,16,17,9,4,3,20,28,23,15,20,23,23,16,29,31,44,48,39,36,40,43,44,36,40,35,32,24,28,16,12,41,24,12,7,12,4,12,11,4,18,17,8,4,8,4,8,17,21,13,21,16,12,16,8,4,8,13,13,3,3,12,24,20,37,37,12,12,0,0,4,16,16,4,16,20,13,20,21,4,4,4,0,4,0,0,0,0,0,8,12,8,12,3,17,7,17,11,12,17,21,19,16,12,8,4,8,12,0,9,16,11,29,40,40,33,18,19,29,12,8,15,19,41,40,43,48,33,16,12,16,16,16,33,31,32,15,33,23,20,25,20,16,3,8,4,20,21,21,24,4,47,70,36,28,11,8,17,32,37,21,12,21,9,4,12,15,12,4,8,4,8,0,3,4,4,4,4,4,12,9,9,12,8,9,8,8,12,4,4,9,8,8,12,8,3,9,4,12,4,16,20,20,16,8,8,12,8,11,20,20,20,17,8,11,20,17,3,4,8,12,8,7,8,25,20,9,8,9,4,0,0,4,4,7,16,8,12,3,4,8,12,12,8,9,3,4,4,8,8,12,14,16,17,25,11,26,20,21,4,16,7,8,7,3,4,12,12,8,4,17,32,31,24,12,4,16,16,12,16,12,16,16,16,16,8,8,3,11,8,4,25,24,9,9,25,29,8,12,8,7,7,8,4,8,8,4,4,4,8,9,8,25,8,12,0,16,21,8,4,4,9,12,3,0,0,4,8,8,4,4,3,4,4,4,4,0,4,4,12,4,13,3,4,12,4,9,4,17,3,4,0,0,4,8,8,8,20,16,4,0,0,0,4,8,21,16,7,4,11,20,7,4,8,4,4,4,13,12,4,8,16,23,44,45,45,39,43,51,52,60,71,67,65,56,58,45,44,43,69,59,44,36,36,39,41,24,23,15,19,24,11,20,16,16,20,12,8,12,12,16,9,3,4,8,12,3,4,8,8,4,3,3,4,9,12,12,12,3,4,4,12,12,4,0,4,0,4,8,8,4,12,7,12,7,12,28,39,36,12,12,24,32,35,43,35,56,59,51,59,54,63,71,70,66,63,63,55,63,67,71,71,80,75,71,80,70,55,43,72,65,61,70,59,37,9,28,37,19,23,44,52,37,32,48,43,43,52,60,45,40,47,40,32,41,23,40,39,43,43,47,40,23,25,8,4,4,24,40,41,36,31,50,48,35,40,43,32,15,28,39,43,36,25,13,0,4,0,3,9,4,12,12,9,12,3,0,4,12,12,20,27,29,8,8,16,20,28,30,12,16,12,12,13,17,29,41,100,100,100,100,100,100,100,100,100,100,100,100,100,100,100,100,97,100,100,87,100,100,4,100,91,29,100,27,87,76,22,50,23,42,67,100,100,57,25,53,50,74,32,28,32,9,44,30,16,89,17,100,100,29,100,100,100,100,100,100,40,4,3,12,8,4,18,36,81,100,17,28,59,28,56,7,73,21,65,27,54,69,85,78,97,66,40,51,100,12,20,45,72,43,67,71,36,28,17,4,4,20,21,12,12,12,17,20,8,17,7,72,52,28,23,24,23,12,83,77,49,51,98,22,47,56,29,8,33,48,16,40,53,100,100,100,100,100,100,100,100,56,73,82,100,100,16,67,71,54,43,52,60,51,98,100,68,100,100,0,0,0,0,0,0,0
0,0,0,0,0,0,0,100,100,12,12,4,0,4,0,0,0,0,0,0,0,0,4,12,8,12,12,8,13,13,8,21,25,12,11,12,4,0,8,0,0,0,0,0,0,0,0,8,9,4,8,8,9,8,4,4,7,9,8,0,0,8,12,9,4,9,7,4,4,4,12,8,4,8,9,9,12,12,13,12,3,0,0,0,8,12,8,12,13,8,8,9,7,0,4,4,0,4,0,8,4,9,8,4,4,8,8,4,12,12,12,12,8,9,12,9,3,7,12,4,0,8,16,8,4,8,15,29,23,20,25,23,15,37,23,25,32,44,53,57,43,35,32,45,31,45,47,40,28,20,12,24,25,8,7,4,4,12,16,13,4,8,4,0,8,17,18,17,14,12,12,8,8,9,4,8,12,9,4,9,9,12,16,12,20,21,11,17,4,4,4,12,16,12,12,12,4,11,8,4,0,4,0,0,4,4,4,4,4,12,11,9,12,9,8,12,16,20,11,12,4,29,23,12,8,17,16,8,4,4,20,23,27,31,32,24,9,20,24,17,13,21,33,40,35,44,35,23,15,12,16,20,19,32,24,32,33,16,23,24,16,16,24,17,7,3,3,8,27,44,56,83,51,28,23,24,17,12,20,20,12,12,16,9,4,16,20,13,4,13,18,12,9,8,0,0,0,0,0,8,9,8,12,9,9,12,9,8,9,9,3,12,12,8,4,8,4,0,4,0,8,15,20,15,12,4,4,8,13,20,20,24,20,4,12,15,12,8,12,3,4,4,4,8,13,12,4,12,14,8,4,8,8,4,8,8,8,7,7,4,13,8,16,21,13,4,8,9,3,13,17,17,4,18,16,8,7,17,7,9,12,13,4,12,4,8,9,11,16,17,12,24,28,25,8,4,21,20,12,7,21,20,16,11,16,13,8,16,20,9,0,12,15,12,12,25,12,4,4,4,21,12,0,0,4,4,12,8,0,4,0,4,24,36,11,0,16,12,7,12,12,4,12,4,0,0,8,12,4,4,0,8,12,8,8,4,4,0,4,12,8,8,13,4,8,4,0,4,12,12,4,4,4,4,4,12,16,15,15,12,8,9,4,12,8,12,15,11,3,17,20,13,4,9,8,12,11,12,4,4,4,4,20,31,45,31,39,43,43,52,90,86,81,60,56,44,40,56,47,55,67,61,40,37,35,45,27,28,20,24,20,16,15,25,16,15,11,9,8,12,12,12,8,12,12,12,4,0,4,8,9,13,3,4,3,16,11,9,9,8,0,12,11,12,8,12,4,8,8,4,0,8,12,7,12,12,23,31,33,16,11,16,38,49,44,48,64,58,56,51,56,54,67,67,59,69,100,80,69,85,79,66,67,66,71,71,72,60,55,67,56,60,76,68,45,4,32,27,19,23,31,43,45,24,36,47,48,56,60,44,39,48,36,32,27,36,39,47,43,47,48,31,28,16,12,4,8,20,27,44,56,44,31,43,45,27,35,32,20,28,40,44,28,15,12,4,8,3,0,4,8,12,12,8,12,8,4,0,4,4,17,28,24,12,8,12,3,25,20,20,24,16,16,21,9,17,33,20,100,67,100,100,100,86,100,100,100,100,100,100,100,100,100,100,100,100,100,100,100,100,100,100,100,34,81,100,100,97,100,74,80,89,45,97,12,49,44,74,63,60,86,36,83,51,21,9,38,32,83,41,28,96,100,100,100,55,47,34,4,8,22,16,30,16,32,32,61,57,67,88,63,9,18,39,83,45,57,58,60,8,49,49,60,73,100,53,34,33,30,4,31,50,85,15,20,13,13,4,9,0,0,3,0,16,20,17,8,14,25,45,23,23,23,23,23,44,70,43,63,35,46,63,31,69,31,12,66,44,32,100,100,100,100,100,100,99,85,95,61,78,95,100,63,78,84,67,50,43,56,63,59,100,38,55,100,100,100,0,0,0,0,0,0
0,0,0,0,0,0,0,100,100,100,8,0,4,0,0,0,0,0,0,0,0,0,0,12,12,8,9,13,8,8,12,20,15,16,16,12,8,9,8,0,0,0,0,0,0,0,0,4,0,4,8,9,9,12,0,9,8,0,4,0,0,12,12,8,9,9,12,4,9,4,8,3,0,3,0,12,12,12,9,12,4,0,4,0,12,12,4,8,4,4,8,12,16,9,3,3,9,3,0,3,9,8,8,0,0,4,12,8,12,12,3,9,3,8,12,4,4,12,12,4,8,4,12,17,9,3,20,24,23,29,20,24,16,43,66,3,44,43,47,47,35,15,24,36,32,36,51,61,41,29,16,20,21,8,7,9,8,8,16,16,8,0,0,0,4,8,9,13,4,12,4,0,3,0,4,4,3,3,4,4,4,4,8,9,8,9,12,7,4,4,4,4,12,12,4,8,4,8,4,8,9,8,0,4,8,8,4,3,9,8,12,8,4,0,12,15,11,12,12,12,8,39,31,16,3,16,15,4,12,17,24,41,36,28,20,20,16,9,16,17,21,17,34,41,36,32,23,20,23,20,12,20,23,28,20,28,23,16,28,28,12,8,20,30,25,12,4,12,37,36,44,56,54,20,20,16,16,15,12,8,16,16,7,4,12,16,16,9,9,13,9,16,12,12,0,0,0,0,0,4,0,3,8,13,8,8,4,8,4,0,4,8,12,4,4,4,0,4,4,4,3,20,23,20,12,4,4,12,9,16,15,19,20,11,9,16,12,12,16,12,4,4,8,12,9,4,4,4,9,4,9,9,4,9,8,8,4,17,16,8,12,8,3,4,4,4,8,13,8,3,7,16,17,4,8,13,7,8,17,4,4,8,12,9,12,8,8,16,20,12,17,24,20,20,16,4,8,20,16,16,20,20,11,12,12,4,9,16,16,9,4,7,12,11,15,20,12,9,4,9,8,18,3,0,0,0,12,12,4,4,4,4,25,8,12,0,12,12,12,12,8,9,8,0,0,0,8,12,3,8,4,9,8,4,4,8,8,4,8,8,4,8,13,4,8,0,0,4,12,11,13,9,13,3,4,16,24,20,24,23,12,8,17,12,12,11,24,20,8,7,20,9,17,8,8,20,15,8,0,4,16,21,8,33,36,40,43,48,39,59,74,88,72,59,60,43,47,64,60,51,54,56,43,27,54,47,31,28,23,28,20,16,25,20,24,20,16,8,4,12,12,16,22,11,8,8,8,9,3,8,12,4,4,8,13,11,11,13,4,12,4,7,24,30,26,16,8,12,4,0,0,4,8,8,3,20,23,19,20,16,24,24,32,40,35,47,55,55,48,43,47,59,63,63,63,63,100,100,54,71,80,75,72,59,58,58,58,58,67,72,60,50,71,67,44,14,27,32,20,15,23,49,35,15,46,56,56,56,47,39,43,35,31,31,32,31,39,43,47,51,53,31,37,16,7,4,4,12,24,65,75,53,24,31,36,32,36,36,20,20,31,27,24,15,12,8,12,12,12,13,7,0,4,0,12,12,3,9,12,21,8,16,15,16,9,12,4,18,24,23,20,11,20,20,21,8,18,8,21,24,16,74,87,100,100,100,98,100,100,100,100,100,100,100,100,100,100,100,100,100,100,100,100,43,77,65,37,96,52,99,40,56,82,70,52,64,4,40,45,49,56,51,18,49,32,39,40,56,52,83,14,94,100,70,100,74,8,36,4,24,3,58,36,7,8,8,17,30,46,46,67,42,18,35,29,43,18,4,29,13,30,32,48,96,100,43,53,38,4,7,9,27,18,27,24,17,30,4,26,18,8,4,12,11,13,12,24,16,16,28,23,28,44,31,32,41,24,32,45,43,39,62,100,39,97,20,90,100,83,100,100,100,100,100,58,100,71,69,52,74,100,83,73,71,71,64,51,52,51,63,59,47,41,17,100,100,100,0,0,0,0,0,0
0,0,0,0,0,0,0,100,100,100,4,9,3,0,0,0,4,0,4,4,0,4,0,12,12,4,4,12,8,4,12,24,25,12,15,8,12,13,8,0,0,0,0,4,0,4,0,0,0,0,4,0,8,12,4,0,4,4,4,4,4,12,9,12,8,9,8,12,12,0,4,8,9,8,0,12,12,12,9,12,8,9,8,0,8,12,4,3,12,16,8,16,20,4,4,3,4,4,3,4,8,8,8,0,0,0,8,12,12,12,3,9,3,4,8,8,4,12,12,8,12,4,8,12,8,8,11,20,19,23,24,24,20,41,62,95,21,59,69,47,25,21,17,36,32,36,43,48,35,41,24,24,17,9,17,4,17,4,8,16,16,8,0,4,4,4,4,4,0,4,12,4,12,4,4,4,8,8,9,12,3,0,0,0,0,0,4,8,8,4,0,0,12,12,0,4,0,4,0,8,9,8,0,8,12,12,8,0,0,4,4,8,8,4,17,15,21,12,8,4,8,29,31,20,8,21,16,4,7,21,23,36,32,20,20,16,11,17,12,12,21,26,16,25,28,33,12,25,23,19,20,20,32,28,24,23,19,20,20,29,20,17,12,8,7,9,7,4,21,0,32,35,19,24,21,4,24,28,9,9,11,16,3,8,8,12,12,0,12,9,9,8,8,12,4,0,4,0,4,0,4,3,13,3,4,4,0,8,13,4,4,4,4,8,8,4,3,12,8,0,12,20,28,20,4,9,12,16,9,12,20,24,23,29,9,12,8,12,15,12,4,12,7,8,8,4,4,0,8,9,8,4,8,8,12,7,0,17,12,12,8,12,18,12,4,3,4,4,3,4,12,15,16,13,11,9,8,8,12,8,8,17,11,4,11,13,11,12,7,16,16,16,15,20,25,9,9,29,24,20,20,12,12,17,8,8,8,8,12,8,4,7,8,12,15,11,12,3,0,0,4,17,4,17,0,0,8,12,8,8,9,12,4,12,4,0,8,12,12,12,4,0,3,4,4,4,8,12,12,12,4,0,4,0,0,4,4,4,4,4,0,4,4,12,8,4,0,8,12,12,8,12,8,3,8,11,19,20,24,31,29,17,12,3,21,24,19,16,8,13,12,17,8,8,12,19,25,4,13,12,29,19,8,25,31,35,48,47,64,89,75,64,69,77,67,55,64,63,55,51,55,55,55,54,35,61,40,28,23,27,23,15,15,15,20,15,16,12,8,12,8,8,4,12,8,9,8,0,3,8,17,4,8,8,8,12,12,8,4,0,4,12,20,16,13,7,12,8,0,0,0,4,4,4,8,16,19,15,16,20,23,28,36,41,35,51,61,47,45,36,43,64,71,63,76,87,100,92,63,67,68,80,72,51,54,59,68,58,63,63,54,55,75,89,53,13,23,28,16,12,28,39,40,20,36,47,56,52,36,48,47,39,31,35,27,41,52,43,52,56,43,36,27,24,21,8,4,12,23,69,87,71,12,24,41,35,31,32,11,24,32,28,20,15,11,12,12,12,12,9,12,8,9,8,8,12,8,12,16,16,12,7,12,24,21,12,3,0,16,19,17,16,16,29,28,24,20,8,13,21,12,17,12,71,53,100,100,100,100,100,100,100,100,100,100,100,100,100,100,100,100,100,100,70,55,27,60,27,100,21,98,54,89,100,52,52,24,76,16,23,34,17,29,53,73,82,23,21,56,49,35,65,100,100,99,57,44,12,61,48,9,48,47,63,74,68,88,24,18,3,24,47,96,41,12,24,12,21,12,27,69,8,59,97,35,73,55,36,23,38,13,36,23,23,24,21,36,83,36,4,56,4,12,18,29,51,53,8,30,36,33,32,47,54,21,16,28,40,94,52,100,84,100,80,100,8,100,100,100,100,100,100,100,100,55,99,100,32,47,77,100,100,55,71,64,43,56,47,74,71,55,35,23,20,17,100,100,100,0,0,0,0,0
0,0,0,0,0,0,0,0,100,100,100,0,4,0,0,4,8,9,8,8,9,8,0,12,12,4,8,8,4,4,12,28,25,12,15,13,8,8,8,0,0,0,0,3,9,3,0,0,0,0,0,0,12,12,4,0,4,3,13,13,4,12,9,12,4,4,4,12,12,0,0,8,9,8,0,12,12,12,9,12,12,9,12,0,4,4,12,8,16,32,32,38,16,4,9,8,3,9,7,9,8,12,8,0,0,0,4,12,11,9,8,12,12,0,4,8,12,8,12,12,12,0,0,4,12,8,12,12,20,23,23,32,28,28,62,36,89,84,68,82,44,32,21,29,32,31,39,44,43,44,27,32,16,8,8,8,12,4,8,12,16,21,9,12,3,3,12,9,4,8,16,13,11,9,9,9,9,9,8,8,4,0,0,0,0,0,0,4,8,8,4,4,12,12,0,4,4,4,4,4,0,4,4,16,11,11,17,8,13,4,9,9,8,9,12,13,12,25,22,30,24,28,23,15,16,12,12,8,8,17,27,32,20,16,11,11,20,20,24,25,16,21,21,13,11,20,16,15,20,24,28,20,28,32,20,33,24,11,16,12,25,21,0,4,13,16,11,12,9,8,24,24,20,20,13,4,33,36,13,8,12,8,8,12,4,12,12,0,12,12,0,4,4,12,4,9,3,4,8,9,8,0,0,0,0,0,4,3,8,13,7,0,4,4,4,4,16,25,21,13,25,27,28,20,9,4,8,7,9,8,12,15,23,25,7,12,4,12,11,12,12,16,12,4,4,12,8,0,12,9,12,8,8,4,4,8,8,7,17,4,4,16,12,3,8,12,13,8,8,4,9,20,15,13,11,4,9,13,9,13,9,17,12,4,12,13,16,8,8,25,16,12,15,15,12,4,12,16,19,24,12,8,3,12,11,12,3,8,7,3,8,8,4,12,15,16,12,9,4,4,0,15,37,15,4,0,4,4,4,4,8,8,4,8,8,4,9,12,8,12,0,4,3,13,13,8,8,8,12,12,0,0,0,0,0,0,0,0,0,0,0,0,0,8,12,4,9,4,12,8,13,17,8,12,7,21,28,19,24,36,32,13,17,12,20,19,19,12,12,9,9,12,13,4,12,20,12,8,16,20,20,23,18,20,32,36,52,69,85,83,86,60,47,55,80,77,58,67,59,55,55,55,55,43,53,39,40,31,41,40,31,23,15,15,15,15,15,12,3,12,9,4,4,8,13,4,8,4,8,9,8,0,4,4,3,7,8,8,12,9,4,8,12,12,4,4,4,3,4,4,4,8,9,3,4,21,24,16,12,19,25,24,31,31,39,51,48,40,45,40,52,78,84,71,74,98,100,91,68,80,59,67,64,50,58,59,60,60,54,66,67,59,84,78,52,7,11,20,12,21,41,43,31,19,28,43,52,35,31,48,51,48,35,35,36,35,43,39,43,52,39,31,23,24,20,16,8,12,28,64,78,74,29,20,23,36,36,33,20,28,27,28,15,20,16,12,16,12,12,9,12,8,9,8,8,16,12,11,16,12,16,12,12,24,21,8,12,9,0,12,8,21,12,30,27,27,32,20,16,4,0,4,4,28,45,11,9,77,100,100,100,100,100,100,100,100,100,100,100,100,100,100,100,17,21,4,16,44,52,100,40,84,100,100,100,100,57,100,69,69,49,29,88,83,47,59,69,64,48,54,56,55,100,100,78,50,26,72,44,49,45,20,20,90,100,100,98,29,42,12,22,32,21,23,20,29,12,16,26,25,4,32,66,39,47,94,16,100,43,29,27,49,30,38,61,21,70,4,42,100,47,9,17,16,31,91,65,12,29,31,23,41,43,32,12,25,40,44,100,100,100,100,100,74,100,100,100,100,100,100,100,100,100,100,50,100,76,52,55,79,94,100,100,44,59,43,70,55,69,67,56,36,20,33,20,100,100,100,0,0,0,0,0
0,0,0,0,0,0,0,0,100,100,100,0,0,0,0,3,12,13,8,12,9,12,0,12,12,8,17,4,4,3,12,24,25,12,16,9,8,12,8,0,0,0,0,4,0,4,0,0,0,0,0,0,8,12,4,9,3,8,8,8,9,12,12,8,9,3,0,12,12,0,0,4,0,4,0,8,12,12,8,12,9,9,12,0,0,0,8,12,12,27,27,28,13,8,12,8,4,0,3,0,4,12,12,0,0,0,4,12,7,0,4,8,12,4,4,8,12,12,12,12,12,0,0,0,8,9,9,7,16,32,31,31,31,28,16,50,91,100,57,38,20,25,16,9,23,28,36,40,52,48,32,35,43,17,4,12,8,12,12,12,12,20,8,12,9,8,12,3,8,9,11,13,17,4,8,12,9,4,8,4,0,0,0,0,0,0,0,0,4,4,12,8,12,12,0,8,12,12,8,0,4,4,8,20,16,17,8,17,12,8,13,8,12,9,4,8,13,7,8,12,28,28,25,24,23,12,8,12,4,12,29,28,16,8,12,25,33,23,20,11,7,21,12,9,26,33,20,16,20,23,27,29,24,23,16,29,19,21,13,3,24,20,0,0,20,25,7,9,8,21,20,16,16,4,12,17,28,23,12,0,4,4,12,8,0,12,12,0,12,12,0,0,4,12,8,4,4,8,12,13,7,8,4,8,4,4,8,8,4,12,12,9,3,0,0,0,16,11,25,16,20,36,41,20,13,0,8,4,0,4,4,16,24,16,12,16,16,4,4,20,23,20,12,0,0,8,12,4,12,9,16,12,8,9,8,4,4,12,8,4,0,12,12,0,4,12,8,8,12,4,0,11,25,21,21,4,4,8,13,3,4,3,17,9,7,8,16,3,12,20,12,12,15,12,8,16,20,16,16,16,7,3,4,8,15,16,8,12,7,12,4,4,4,12,16,12,4,4,12,8,0,17,0,17,3,9,60,4,55,8,8,4,4,4,4,8,4,8,8,9,4,8,3,0,4,3,12,8,12,8,0,0,4,0,4,0,0,0,0,4,4,4,4,8,12,3,0,4,3,4,4,8,12,12,8,16,23,24,20,28,31,25,4,11,21,16,23,21,13,8,12,3,9,4,8,15,16,21,24,23,23,20,4,21,20,31,56,70,85,68,55,68,70,52,76,70,74,79,67,63,59,55,56,47,56,40,44,44,40,49,40,36,20,16,15,15,15,12,8,8,9,13,8,0,4,4,8,8,12,12,4,4,4,4,8,8,4,4,12,8,0,3,12,7,8,8,4,8,8,4,8,7,4,3,0,16,25,8,12,15,11,29,36,48,43,52,40,50,44,53,51,58,80,71,80,99,100,77,69,75,63,60,51,72,67,55,47,60,72,84,74,67,71,87,73,25,17,20,16,28,31,35,41,24,20,36,43,39,35,39,47,51,43,39,40,52,43,44,47,48,41,27,32,24,15,15,12,12,28,60,62,51,31,24,20,23,32,23,32,36,27,28,19,28,24,9,12,16,7,8,17,4,4,3,12,11,12,12,8,12,20,15,16,20,16,4,3,4,3,13,8,21,20,16,28,31,31,28,20,13,9,21,18,25,20,16,32,35,23,100,100,100,100,100,100,100,100,100,100,100,100,100,100,100,100,100,90,53,89,100,100,100,81,80,43,94,100,23,93,36,100,100,100,100,100,74,100,31,100,27,75,86,94,4,96,56,76,4,29,30,63,100,31,48,87,58,83,42,48,100,27,65,16,58,29,23,8,12,12,8,12,17,100,29,100,17,83,55,50,96,4,78,33,20,64,100,80,11,38,11,60,4,31,74,41,23,40,24,15,27,32,28,32,28,24,28,100,40,100,100,100,100,100,51,100,100,27,100,100,100,100,100,100,100,67,59,50,60,77,100,87,100,76,81,63,51,64,69,51,56,43,69,29,21,8,12,100,100,0,0,0,0,0
0,0,0,0,0,0,0,0,100,100,100,0,0,0,0,8,8,9,9,12,9,12,4,12,4,17,12,9,8,4,12,28,25,12,11,0,9,12,8,4,0,4,4,4,4,4,4,0,4,0,0,0,4,4,8,8,4,8,13,12,8,12,12,12,0,4,0,12,12,4,0,4,0,0,0,4,4,4,4,8,9,9,12,0,0,0,8,12,8,21,4,21,12,9,12,4,0,0,0,4,0,12,12,0,0,0,8,12,4,0,0,4,4,12,8,8,12,12,8,12,12,4,0,3,0,4,4,8,7,28,40,40,35,27,24,58,94,63,41,20,9,8,23,30,24,24,29,36,40,40,36,35,29,8,12,17,7,20,16,3,8,20,30,17,4,17,8,3,12,9,4,12,13,4,3,13,13,4,12,4,4,0,0,0,0,0,0,0,0,0,8,12,12,8,0,16,12,12,8,0,12,12,12,29,25,8,4,16,16,12,4,13,22,8,13,13,9,4,4,17,20,29,28,32,19,8,4,16,11,12,16,19,25,4,3,16,24,15,16,16,7,16,20,8,16,24,20,16,28,23,20,20,23,28,16,15,16,12,0,17,20,16,4,3,23,33,8,0,3,12,20,16,21,9,13,25,15,16,12,8,4,4,4,4,4,12,16,9,8,8,4,4,8,8,4,8,9,7,4,4,7,12,4,3,12,4,8,8,3,12,8,0,4,4,4,4,7,16,16,25,17,32,27,24,12,4,4,4,4,0,4,12,11,12,3,21,24,20,17,25,23,28,21,4,4,3,4,4,4,12,11,9,8,12,12,0,0,4,4,8,4,9,8,0,0,8,8,8,8,0,4,8,12,8,12,8,8,3,8,9,4,8,8,8,12,9,12,8,16,21,18,8,15,8,22,29,20,12,8,12,7,8,4,9,21,16,12,12,8,12,8,9,8,8,12,3,4,8,11,17,4,4,4,0,4,4,55,100,59,4,4,0,3,9,3,0,0,0,4,0,4,8,8,8,9,9,12,12,12,4,4,0,8,9,8,4,4,4,4,8,12,8,4,8,3,7,4,8,4,4,4,8,11,16,8,12,20,19,15,33,40,32,21,16,12,29,32,24,12,12,12,9,0,8,12,29,20,20,24,28,32,25,14,16,24,40,64,75,69,43,51,68,55,55,72,76,90,95,83,83,77,51,47,52,47,40,39,43,44,44,44,39,37,16,11,16,20,16,8,12,4,4,7,12,4,8,12,7,9,11,9,8,8,4,7,4,4,4,12,7,4,8,8,7,12,3,4,4,4,0,4,8,8,8,4,16,16,0,8,12,20,23,27,43,57,43,39,44,39,48,60,68,72,67,66,87,98,100,51,63,59,60,59,67,76,55,43,69,70,71,88,75,72,83,81,24,4,16,20,36,40,27,28,15,20,28,44,43,40,48,52,55,48,48,57,43,53,40,47,36,28,31,35,32,20,20,17,13,28,52,56,39,39,28,20,23,32,31,27,36,31,32,27,27,29,9,7,20,17,12,7,12,7,8,11,16,7,8,3,16,20,24,24,20,16,8,12,9,4,12,7,16,15,21,15,31,36,27,24,13,4,16,21,26,17,18,25,23,16,4,13,26,79,100,100,100,100,100,100,100,100,100,100,100,100,100,100,89,100,72,100,100,58,44,36,69,29,100,100,59,100,100,100,100,100,100,100,100,100,91,58,100,38,81,41,93,100,61,37,30,68,21,69,72,18,67,67,78,92,54,60,55,100,12,100,20,17,23,12,8,8,12,100,100,100,38,12,33,72,55,63,27,31,20,48,21,67,21,17,4,4,21,35,12,55,11,32,32,16,33,33,16,24,32,70,100,100,100,100,100,81,85,82,79,76,100,95,100,100,46,100,100,47,100,66,64,56,55,63,90,93,60,76,71,59,59,55,51,39,36,39,88,100,45,9,25,100,100,100,0,0,0,0
0,0,0,0,0,0,0,0,100,100,100,0,4,0,4,8,12,9,9,8,13,12,8,12,4,3,4,8,12,4,12,28,24,12,11,9,4,8,4,8,9,8,3,13,13,3,3,9,3,0,0,0,0,4,12,8,0,8,9,8,12,12,12,8,0,4,0,12,12,3,9,3,0,0,4,4,4,4,8,8,8,13,8,0,4,0,8,12,4,4,0,4,12,9,12,0,0,0,0,8,9,9,12,0,0,0,8,12,4,0,0,0,0,8,12,3,4,4,4,8,12,8,9,11,12,12,8,4,12,24,40,39,43,56,61,70,52,40,28,33,25,7,35,41,18,24,20,28,28,41,35,31,29,20,20,16,24,23,17,4,13,20,24,4,17,16,8,8,12,4,13,16,9,9,4,4,8,12,12,8,12,4,4,0,0,0,0,4,4,4,3,4,4,4,4,16,13,16,9,4,25,24,16,16,16,8,3,16,25,17,12,12,8,8,3,12,9,9,8,8,24,28,32,32,21,3,0,16,25,8,8,15,29,12,3,20,24,21,17,12,7,11,16,20,20,16,16,11,19,29,12,16,32,27,20,16,17,3,4,17,16,17,4,18,29,27,25,4,8,9,12,16,12,8,8,16,21,9,4,7,13,8,4,4,8,12,12,8,8,4,3,12,8,4,4,12,9,12,0,0,12,12,8,13,17,7,9,3,4,12,8,0,4,8,8,9,17,16,12,16,13,16,23,28,20,9,4,12,8,0,3,12,8,3,9,17,23,27,25,7,20,28,16,8,12,3,0,0,3,12,8,0,4,12,12,4,0,4,0,4,4,4,3,4,4,8,9,3,4,4,3,4,8,4,7,16,13,4,4,0,4,8,8,12,4,9,8,12,12,8,12,12,15,21,16,25,16,17,4,7,12,4,4,13,0,7,16,16,0,4,0,12,12,4,8,12,3,8,16,3,16,8,29,4,4,12,56,0,60,4,4,3,4,4,4,8,9,8,4,4,4,4,4,4,12,9,12,12,12,0,8,9,9,12,8,8,8,8,8,9,8,4,4,3,12,12,4,9,9,8,8,12,16,16,12,8,8,25,19,23,27,32,15,17,24,27,32,20,11,12,7,4,9,8,20,24,20,24,23,28,23,19,8,8,20,40,50,72,56,44,51,55,51,81,79,75,96,98,95,86,88,63,52,48,47,39,43,43,44,43,48,39,35,28,8,12,24,25,12,12,0,0,12,12,3,9,12,12,4,12,8,0,4,0,8,9,4,12,7,12,8,4,4,17,11,8,4,4,4,4,4,4,4,0,0,12,16,9,4,12,28,31,28,36,48,47,55,55,43,43,64,59,56,68,62,70,78,74,67,59,73,63,59,72,67,63,50,81,75,63,82,100,63,79,63,38,3,17,23,36,40,20,15,20,28,23,40,43,43,47,51,47,39,48,47,43,52,39,40,28,27,35,35,32,20,11,12,3,25,39,43,39,43,32,16,37,31,31,32,32,35,44,36,15,12,12,16,16,17,13,17,16,11,12,12,16,12,8,7,16,16,24,24,16,16,16,16,8,8,12,8,12,8,12,29,31,40,37,20,4,3,12,16,4,14,3,13,22,17,9,8,16,12,100,39,100,100,100,100,100,100,100,100,100,100,100,100,69,100,100,100,100,100,100,100,100,100,100,78,100,46,100,94,100,100,100,100,12,31,100,100,100,55,16,55,48,100,100,100,100,77,42,100,99,17,87,100,32,100,100,47,63,34,37,48,61,100,16,97,4,80,12,100,24,100,45,27,7,28,57,100,12,24,43,11,17,16,37,18,42,50,32,100,12,83,28,27,38,26,20,29,21,23,32,71,100,100,100,100,100,79,43,69,100,100,100,100,100,100,100,100,100,86,43,55,60,59,55,72,100,80,68,71,59,64,59,52,52,45,20,50,86,28,39,29,33,100,100,100,100,0,0,0
0,0,0,0,0,0,0,0,100,100,0,0,8,9,8,12,12,8,12,8,9,8,12,9,9,8,0,4,12,8,12,23,29,16,11,12,0,4,8,12,12,8,4,4,4,4,4,0,4,0,0,0,0,3,12,8,4,8,4,9,12,4,12,9,9,8,4,12,12,4,0,4,0,0,8,12,12,8,12,13,8,8,8,0,8,9,9,8,0,0,0,4,12,4,12,4,0,4,4,12,4,9,8,0,0,0,4,8,8,4,4,0,0,4,12,8,0,0,0,4,4,4,12,15,12,12,4,9,16,15,32,52,90,87,90,70,60,25,16,32,33,34,47,51,38,25,15,29,29,24,32,24,24,28,19,23,32,33,17,4,9,25,23,16,12,21,25,16,17,4,3,3,4,4,4,4,3,8,12,12,12,8,12,4,4,0,0,12,12,3,12,8,4,0,3,16,9,16,13,12,29,23,12,12,8,12,12,16,24,29,20,16,12,3,8,12,4,13,12,17,29,27,28,20,12,12,14,3,21,17,13,12,20,15,16,12,15,12,12,8,16,16,7,28,33,12,16,17,11,20,12,15,23,28,25,12,12,7,12,7,16,17,13,9,7,32,33,14,12,4,12,12,8,16,16,8,7,9,8,12,9,8,8,9,12,8,12,12,12,4,8,12,3,4,8,8,12,8,4,0,12,12,12,12,12,12,0,4,4,12,8,0,3,12,8,8,12,7,12,8,7,4,17,24,23,16,0,12,12,0,4,8,8,8,8,21,20,32,29,4,8,16,20,21,21,13,4,4,3,8,8,4,3,12,8,8,9,8,0,0,8,12,8,8,8,8,4,8,4,12,13,0,9,3,8,12,4,0,0,4,4,9,12,4,12,4,4,3,13,9,12,16,16,20,12,12,7,12,4,8,12,4,4,0,4,4,16,21,9,4,8,7,17,4,8,12,8,3,12,9,24,54,27,4,4,7,13,8,8,8,12,12,9,8,4,12,9,9,12,12,8,0,0,0,8,9,7,12,8,0,12,9,9,12,4,0,4,0,4,0,4,4,8,8,7,16,17,9,9,3,7,11,20,16,7,8,4,20,32,28,28,27,24,16,28,36,31,20,7,16,16,16,12,12,19,25,21,23,28,23,33,27,15,12,20,35,56,59,47,43,47,52,60,98,99,78,87,100,98,95,82,74,69,39,48,43,43,48,39,48,43,43,48,45,26,4,29,20,16,16,0,0,12,12,4,3,13,8,4,3,7,8,4,4,8,8,4,12,17,3,17,8,4,8,12,4,0,4,4,4,4,4,0,8,9,9,12,4,9,12,28,31,28,32,48,51,72,72,56,48,54,73,49,43,55,67,67,84,100,75,68,67,73,76,71,72,72,67,63,68,97,74,80,84,60,32,11,18,28,36,31,20,16,28,31,27,41,57,60,51,47,40,40,39,40,52,56,43,32,28,28,36,41,32,28,20,16,7,21,27,40,47,43,31,29,27,36,28,31,31,39,48,42,12,3,16,20,16,8,7,12,4,12,12,12,12,8,12,16,15,12,25,20,21,20,24,20,12,4,12,3,4,9,16,16,20,27,32,20,12,8,9,12,16,21,9,4,7,13,4,9,12,16,12,12,100,12,100,100,100,100,100,100,100,100,100,100,100,100,100,100,100,100,100,100,100,100,64,100,100,100,100,60,69,70,51,100,54,11,100,100,100,100,100,8,100,59,91,100,96,100,62,84,35,29,53,84,100,100,100,83,43,17,26,56,36,63,100,16,100,88,100,73,62,100,31,30,17,17,97,82,56,40,76,100,27,58,55,76,82,43,25,95,100,80,37,20,16,20,25,24,23,32,27,74,100,100,98,77,100,100,100,100,67,100,72,100,100,100,100,100,74,59,47,56,63,67,50,72,82,85,59,68,55,60,56,39,52,45,15,41,35,20,12,41,37,3,100,100,100,0,0,0
0,0,0,0,0,0,0,0,100,100,0,0,12,9,12,12,12,12,12,8,4,8,8,9,9,12,0,0,8,12,12,20,20,11,11,17,4,4,8,8,8,8,0,0,0,0,0,0,0,0,0,4,0,3,8,8,8,8,4,4,4,4,12,9,12,12,8,8,8,4,4,0,0,0,12,12,12,12,12,9,12,12,8,0,8,12,4,4,0,0,0,8,12,4,8,4,9,8,8,12,4,4,4,0,0,0,0,4,4,8,8,4,3,4,12,8,0,0,0,0,0,0,12,16,9,8,12,9,67,15,41,73,100,99,72,40,23,27,28,32,11,54,72,68,40,4,20,19,16,29,28,16,29,29,32,32,23,16,11,13,12,24,19,33,13,17,29,19,12,8,8,4,4,4,8,7,4,9,12,16,12,12,8,3,13,9,13,21,16,4,12,16,12,0,8,29,21,13,21,11,16,20,12,4,4,12,16,33,27,27,24,25,20,8,12,4,3,16,11,12,20,28,34,9,4,7,4,4,8,17,12,16,16,24,24,12,16,12,12,12,25,20,4,29,28,20,12,8,17,16,25,24,15,20,16,7,12,16,16,12,3,8,12,8,8,16,16,0,4,12,16,12,3,12,8,0,12,9,12,12,9,12,4,4,4,8,12,12,12,8,12,4,4,3,12,9,12,4,3,9,8,12,8,12,12,12,4,4,8,8,4,0,4,12,8,12,12,4,4,8,7,12,8,21,32,20,8,7,12,4,0,4,4,7,13,16,16,20,23,21,9,9,12,20,15,8,4,12,7,4,4,12,12,12,9,12,9,12,0,0,8,12,4,4,3,3,4,8,13,16,9,9,8,0,8,0,9,12,4,8,8,4,3,0,8,12,9,8,9,17,16,11,12,12,7,12,7,8,8,3,7,8,4,4,4,0,8,12,4,0,3,12,7,8,7,7,8,4,3,0,12,8,21,9,4,12,4,9,8,26,8,17,4,8,8,0,8,9,8,34,12,21,4,4,4,4,8,8,4,0,12,9,13,16,8,8,4,8,4,0,0,3,12,12,12,12,16,12,12,8,12,11,20,25,8,3,8,29,36,37,28,23,19,24,23,36,36,16,3,8,21,20,20,20,20,16,25,23,32,31,23,32,31,34,35,45,52,55,51,47,47,47,67,86,98,90,95,98,98,90,82,82,77,39,48,56,52,43,43,43,39,44,52,40,20,12,20,20,25,16,0,0,12,12,4,3,3,4,4,8,8,7,12,8,8,4,3,16,17,4,12,12,12,3,4,4,4,8,8,8,8,8,4,9,8,4,8,8,4,4,25,27,28,40,47,52,63,81,60,48,50,73,45,31,51,63,75,88,100,100,67,67,67,67,71,72,63,63,63,63,75,79,71,67,47,31,20,12,20,23,23,20,15,28,31,31,39,47,51,51,43,27,49,39,40,48,56,40,23,33,20,24,41,35,27,23,24,16,13,20,36,52,44,27,23,27,37,28,39,39,39,40,24,11,12,8,25,20,9,11,17,12,9,12,12,7,8,7,16,20,11,16,20,15,20,24,23,16,9,4,9,4,12,21,8,12,34,36,27,21,17,8,8,25,16,8,3,21,16,16,26,22,30,21,17,7,12,16,17,23,53,100,100,100,100,100,100,100,100,100,100,100,100,100,100,100,100,48,92,84,81,61,46,86,90,100,100,63,89,80,100,100,100,100,100,100,70,17,85,86,100,93,57,83,29,100,54,98,29,87,38,89,62,20,20,65,32,81,100,100,100,53,100,100,83,61,23,11,9,20,89,70,25,40,21,27,63,100,66,100,23,41,95,21,79,25,9,25,23,24,24,36,39,52,80,97,100,100,70,93,62,100,100,100,100,8,100,100,100,100,100,69,48,52,63,62,62,62,63,62,64,50,63,54,47,43,44,35,31,40,45,24,20,15,37,54,78,100,100,100,0,0,0
0,0,0,0,0,0,0,0,100,100,100,0,12,13,8,8,8,12,9,12,12,8,4,0,8,12,4,0,4,8,11,20,20,16,16,7,4,12,9,8,4,8,4,4,4,4,4,4,4,4,4,8,9,8,4,4,4,4,0,0,0,0,8,9,8,12,4,9,8,8,8,4,0,0,8,12,12,12,12,9,12,12,8,0,4,12,8,0,0,0,0,8,12,4,4,4,12,12,12,9,9,8,0,0,0,0,0,0,0,4,4,12,12,12,8,4,0,0,0,0,0,4,12,7,0,4,8,9,67,100,27,100,98,97,61,24,41,47,57,47,22,92,96,67,48,21,25,19,16,20,20,15,24,15,24,24,20,12,30,16,21,23,16,25,12,8,23,32,20,17,3,3,4,4,16,20,9,4,4,12,16,12,8,4,8,9,8,4,8,8,12,24,25,9,8,29,33,16,28,16,12,8,4,4,9,17,24,36,36,31,29,20,25,12,12,0,7,30,30,21,8,16,11,4,9,8,7,8,4,17,11,12,12,29,24,16,24,17,9,16,19,29,9,12,16,20,20,17,8,8,16,24,16,7,12,12,16,15,16,12,3,8,8,8,12,8,3,9,17,16,11,12,4,4,0,3,12,9,12,8,13,7,4,4,4,8,12,12,12,12,8,0,4,4,12,9,12,0,4,0,8,12,3,8,9,11,12,4,0,4,0,0,0,8,12,12,8,0,0,0,12,15,12,8,23,29,12,12,7,8,4,0,0,8,9,7,12,16,24,20,12,8,8,17,20,16,12,15,16,9,3,12,12,12,4,12,12,8,0,0,8,16,3,4,3,12,9,17,8,12,8,4,7,8,8,18,13,11,9,7,4,12,8,0,4,8,8,8,9,12,16,12,12,7,12,7,17,4,4,8,12,3,4,12,8,0,0,4,4,4,8,7,12,8,8,12,3,4,12,8,3,9,3,8,9,8,4,4,0,27,56,23,4,8,13,8,4,0,4,27,60,24,9,8,4,4,3,3,4,4,12,4,9,12,17,8,9,12,3,0,4,4,7,7,3,9,25,19,16,12,16,25,11,16,12,12,12,15,23,32,27,24,19,32,27,27,29,12,8,0,16,24,28,28,19,24,20,20,32,44,36,27,36,25,21,32,49,51,47,51,55,60,85,99,98,100,100,95,95,94,87,79,67,55,51,51,51,47,43,44,39,39,43,49,23,20,24,24,20,16,0,0,8,9,8,12,11,12,4,4,4,8,12,9,9,9,13,12,8,4,4,12,16,12,4,4,4,4,4,3,3,3,4,4,8,8,3,7,8,4,12,19,28,40,47,48,64,63,55,43,52,55,40,50,69,94,91,90,94,82,70,62,75,79,72,63,59,55,72,72,67,74,72,58,60,31,12,16,25,16,16,28,23,36,36,44,47,47,47,51,47,35,40,35,40,35,39,37,20,24,16,20,32,36,27,23,23,11,4,21,27,35,40,28,19,28,32,45,39,35,40,31,19,16,16,11,24,15,0,11,12,8,18,20,12,12,12,12,12,16,16,12,20,28,24,19,32,17,8,12,12,4,12,12,17,12,7,23,32,16,3,17,13,16,15,16,16,16,12,12,12,3,16,4,14,17,17,16,21,12,9,20,21,100,100,100,100,100,100,37,100,100,100,100,100,100,100,100,18,43,4,100,92,100,69,100,69,100,100,100,100,88,100,100,100,100,100,40,100,93,74,34,32,31,51,24,30,4,17,25,94,43,100,94,69,80,94,81,25,100,41,100,12,45,100,86,32,12,8,24,52,50,9,8,42,31,68,35,100,100,100,100,43,51,16,25,8,20,27,23,23,44,52,100,100,25,100,100,68,100,56,100,100,100,100,100,100,100,100,85,100,35,39,47,67,80,66,79,74,47,52,65,72,54,53,43,43,32,45,48,36,15,24,19,19,94,100,100,100,100,100,0,0
0,0,0,0,0,0,0,0,100,100,100,0,12,8,8,3,8,8,9,8,8,12,4,4,4,12,8,0,4,4,16,16,16,15,15,12,4,8,13,8,4,8,8,8,8,4,4,4,4,4,12,4,9,8,0,0,0,0,0,0,0,0,4,0,8,12,12,9,12,8,12,3,0,0,4,8,9,8,12,9,9,8,4,0,4,12,8,0,0,0,0,4,8,4,9,8,12,12,12,9,9,12,0,0,0,4,4,4,4,4,0,8,12,7,8,4,4,4,3,4,4,8,8,21,0,25,8,8,71,39,89,99,83,62,53,24,40,48,49,43,44,100,94,70,49,12,8,20,20,20,15,20,19,24,20,16,29,11,12,12,12,23,29,12,20,16,24,23,23,21,12,16,9,4,16,20,8,9,4,7,12,3,8,4,11,13,8,3,13,13,9,19,34,4,4,25,32,45,31,20,8,4,13,8,8,12,29,44,35,36,29,12,16,16,21,4,8,12,25,11,4,12,11,12,8,9,16,20,18,8,12,12,12,33,19,16,16,9,9,20,20,16,8,3,12,11,20,15,12,0,7,16,17,8,12,11,16,20,16,8,16,17,8,3,4,8,8,8,16,21,9,8,4,8,9,12,12,13,8,0,3,12,9,8,8,8,12,8,4,4,4,9,3,0,12,9,12,0,0,0,8,12,3,4,4,12,12,9,3,4,4,4,4,4,4,4,4,0,0,8,17,24,20,14,20,11,16,20,12,12,12,4,0,8,0,8,4,12,20,29,20,11,16,13,16,20,24,24,16,4,0,12,12,8,9,4,8,4,4,0,8,16,13,3,9,12,4,12,4,12,3,8,7,3,12,9,12,12,9,12,0,12,9,9,8,8,12,4,0,3,12,7,8,8,3,12,8,0,0,12,12,8,8,7,17,4,4,4,4,4,3,12,11,9,9,7,8,8,7,12,3,0,4,4,0,3,8,8,8,25,8,30,8,12,9,12,0,4,21,21,25,31,4,3,4,4,8,12,8,4,8,9,4,7,12,3,8,12,4,0,8,9,7,12,8,8,25,19,20,12,25,24,12,16,20,24,20,16,24,27,32,20,19,35,49,28,20,20,12,4,12,19,24,28,36,27,28,20,32,39,44,41,20,12,8,15,41,44,52,56,59,67,66,100,100,100,100,91,100,94,83,75,71,67,63,56,55,60,43,40,52,43,40,35,32,29,24,28,28,21,4,4,4,0,4,12,16,12,0,0,0,4,4,4,4,12,4,12,3,3,4,17,20,7,4,8,8,4,4,8,8,8,8,4,3,3,12,7,12,8,4,16,20,49,52,43,55,59,47,52,51,56,52,56,72,74,78,90,100,87,74,72,70,88,72,59,67,68,63,63,67,67,54,63,72,58,17,16,20,11,20,28,27,35,45,31,56,52,47,59,59,57,40,35,40,32,27,24,16,16,7,20,23,23,27,32,27,16,13,4,19,27,31,27,28,23,32,40,36,36,40,35,29,16,20,28,33,16,9,16,12,4,16,24,21,8,12,7,4,21,24,16,25,32,24,25,23,12,3,21,23,21,12,16,16,12,9,29,19,11,12,12,4,12,16,20,16,20,13,9,12,13,11,4,4,4,12,12,8,9,8,12,17,15,15,100,100,100,100,100,100,100,100,100,100,100,100,100,31,100,100,100,100,100,100,100,100,100,88,100,89,100,100,100,100,100,100,100,100,100,40,39,88,34,100,100,49,100,47,36,100,100,100,25,28,31,12,60,23,100,100,80,36,13,61,100,84,22,12,29,45,27,16,20,36,40,32,27,75,54,59,100,98,47,21,16,21,24,32,36,27,40,48,100,100,54,98,100,94,72,100,100,37,100,100,100,100,100,100,100,100,31,61,51,60,66,78,83,52,58,43,64,77,47,43,57,43,32,42,49,57,28,20,29,17,97,72,100,100,100,100,0,0
0,0,0,0,0,0,0,100,100,100,100,4,12,8,3,9,3,4,0,4,4,4,12,8,4,8,12,4,4,4,12,16,16,28,24,12,8,9,8,4,4,4,3,4,4,4,4,4,4,0,12,12,0,4,0,0,0,0,0,0,0,4,0,4,8,12,12,9,12,8,12,4,0,0,0,4,0,3,12,8,0,4,0,0,3,12,8,0,0,0,4,0,4,0,8,12,12,8,12,9,9,8,0,0,0,3,12,9,12,8,0,4,12,12,4,9,9,12,8,13,13,8,4,19,47,32,44,16,41,73,100,100,69,51,49,36,44,29,7,8,25,69,90,88,49,12,3,16,28,23,15,16,20,19,16,16,25,16,12,8,12,29,15,12,24,20,15,20,23,33,16,12,12,8,16,17,8,7,8,8,7,13,4,9,12,8,0,4,8,9,8,24,38,17,13,25,40,39,36,20,12,9,8,8,12,25,28,40,36,28,25,16,7,20,16,8,12,3,16,16,8,8,12,12,4,8,3,16,11,11,16,7,16,24,29,16,12,8,13,19,25,12,12,0,13,16,16,23,21,8,4,4,17,20,16,7,12,20,21,8,16,12,8,8,9,4,12,12,12,9,8,8,4,8,12,12,0,0,0,8,9,4,8,4,12,12,12,3,0,0,0,0,0,4,12,9,12,0,0,0,3,12,8,4,3,12,8,0,4,8,12,9,8,3,4,0,0,0,0,8,13,16,11,12,4,9,21,16,12,15,16,12,4,8,9,4,4,3,16,20,24,24,20,16,9,25,23,15,12,12,8,8,12,3,3,8,8,0,3,9,8,12,3,9,4,12,8,12,12,12,8,12,8,12,8,4,4,4,8,12,4,8,9,9,12,8,12,4,4,4,7,12,3,3,8,8,3,4,4,17,16,7,4,12,8,4,4,4,4,8,8,7,12,4,4,7,7,12,7,8,8,4,4,4,4,12,8,0,0,0,0,0,0,0,8,12,4,8,24,49,27,30,9,9,12,3,12,12,4,0,4,13,13,12,12,4,12,8,4,4,7,9,8,12,12,16,24,20,24,16,12,15,15,15,15,23,28,20,20,27,28,16,15,31,44,40,32,23,21,9,17,25,12,42,35,27,28,27,31,31,31,32,19,25,9,24,32,31,39,43,68,74,74,100,100,100,100,90,98,100,83,67,76,72,58,55,55,55,47,39,47,48,27,31,31,23,24,23,23,21,7,18,4,12,8,12,12,7,4,4,4,4,0,0,4,12,8,4,12,8,4,12,11,12,4,4,4,8,4,7,4,4,4,4,12,8,12,12,12,12,0,8,21,50,48,61,63,51,44,65,59,59,59,63,66,72,63,92,100,96,75,67,71,71,67,63,71,71,63,72,71,72,51,55,68,48,16,9,33,29,20,28,27,35,37,41,47,47,55,62,64,43,39,47,49,24,19,15,16,11,8,21,20,25,32,40,36,16,12,12,25,23,32,31,31,32,32,36,27,31,35,31,23,15,15,32,28,7,0,16,12,16,25,16,16,12,20,21,4,21,27,25,8,29,16,21,24,16,4,16,27,21,8,25,24,9,4,16,16,12,16,13,0,8,7,12,15,25,17,17,17,13,7,3,4,3,13,8,12,13,4,8,24,23,12,4,21,33,100,100,100,100,100,100,100,90,100,100,100,100,100,100,100,100,100,94,64,100,100,100,100,100,100,100,100,84,100,100,100,100,100,100,100,100,100,100,100,100,77,32,81,29,98,43,65,33,36,24,38,89,100,69,50,70,13,16,61,43,23,33,32,28,19,19,40,43,44,29,9,3,20,33,20,50,12,12,16,29,31,40,40,36,44,100,100,82,100,100,65,100,100,100,100,100,100,100,100,100,100,100,100,43,56,60,39,86,100,83,56,39,48,56,60,43,51,56,40,36,17,97,63,29,12,11,13,4,21,45,40,100,100,0,0
0,0,0,0,0,0,0,100,100,100,8,4,8,4,4,4,4,4,0,0,0,0,8,12,8,13,12,4,4,4,21,20,12,28,24,4,4,4,4,4,4,4,8,4,4,4,8,12,8,0,12,12,0,4,0,4,0,4,4,0,4,8,9,8,4,8,9,4,12,12,8,0,0,0,4,4,4,8,12,4,0,0,0,0,4,8,8,3,4,4,8,9,8,4,4,4,4,4,8,13,4,9,4,4,4,4,8,9,7,7,4,8,12,16,9,8,8,12,4,9,12,12,4,25,4,29,40,100,7,63,100,100,61,47,48,35,45,22,24,21,7,49,92,87,48,16,8,21,32,28,15,11,25,19,15,11,25,23,22,4,12,11,17,25,20,20,15,12,29,32,20,8,20,21,16,17,12,20,12,3,7,4,8,8,8,8,8,3,8,8,4,21,20,20,22,34,49,40,32,20,8,4,9,21,20,29,28,28,28,16,21,20,16,20,29,20,7,0,12,12,8,16,13,8,18,8,4,9,16,15,16,12,16,24,11,16,12,8,9,16,16,12,4,3,12,8,7,20,30,17,8,8,21,28,25,13,8,16,16,8,11,16,12,4,8,9,12,12,3,0,0,0,4,0,7,9,8,12,8,8,9,8,4,8,9,12,12,9,4,4,8,9,8,3,12,13,8,0,0,0,4,4,12,8,4,12,8,0,0,8,12,8,8,9,3,0,0,0,0,4,0,4,4,8,11,16,4,4,21,24,20,16,12,12,0,8,12,8,7,12,24,28,16,16,21,17,21,12,20,20,21,8,7,12,3,12,8,0,4,0,12,12,4,0,8,12,12,8,12,12,12,12,4,12,8,4,0,4,8,12,3,4,0,8,12,8,9,8,4,12,7,4,12,8,4,4,8,8,4,7,16,17,9,8,3,12,8,0,0,4,12,8,4,4,8,8,7,16,17,4,3,8,8,8,8,7,13,8,8,8,8,4,8,8,8,4,4,4,21,31,63,27,0,4,12,8,12,12,0,0,8,4,8,12,8,3,12,9,8,12,7,0,4,8,12,20,28,23,29,12,12,12,28,28,11,29,32,23,15,23,28,16,16,32,53,47,44,36,34,12,16,12,12,29,35,23,32,40,40,29,28,27,23,24,21,25,28,40,40,36,60,87,99,98,100,100,100,100,90,98,97,59,67,67,67,63,55,59,55,56,43,44,40,32,36,31,24,24,20,17,13,27,15,37,16,16,16,7,8,4,12,8,0,0,8,12,4,0,12,12,8,12,3,12,8,0,0,4,0,7,9,4,4,8,7,16,12,12,8,9,9,11,16,32,43,47,59,56,43,47,55,76,76,63,76,60,59,74,90,92,66,74,75,67,62,63,80,70,67,59,85,75,47,43,54,57,20,8,37,37,20,28,23,31,27,36,43,47,63,76,74,44,47,56,44,23,24,20,20,20,12,9,4,12,28,31,31,25,7,12,25,23,28,31,31,32,32,31,36,31,31,32,23,28,20,28,28,13,9,21,12,21,19,25,11,16,24,24,16,20,23,24,17,12,21,12,16,16,4,20,27,16,8,12,25,18,4,12,9,12,17,25,7,0,0,16,16,9,22,20,8,3,3,9,4,8,8,12,20,17,9,16,32,40,34,9,9,7,25,16,39,100,100,100,100,100,100,100,100,100,100,100,100,100,100,100,100,100,100,100,100,100,100,94,100,100,100,100,100,100,100,100,100,100,100,100,100,100,18,54,18,3,100,100,100,77,49,100,22,100,61,56,39,36,37,48,59,79,53,27,24,24,29,55,46,50,48,29,3,41,37,100,19,100,8,21,19,23,24,45,100,35,100,48,100,100,100,77,12,98,100,100,100,100,100,100,100,100,100,100,52,47,55,56,39,77,90,88,56,35,36,39,52,51,55,51,44,36,39,32,71,29,3,12,25,25,12,18,40,100,100,0,0
0,0,0,0,0,0,0,100,100,100,4,0,4,0,0,8,9,8,0,0,0,0,4,8,9,9,12,0,8,9,13,15,16,23,25,4,0,8,9,8,4,4,3,4,9,0,8,8,12,4,8,9,4,8,4,3,9,3,8,9,4,12,12,12,4,4,4,9,8,8,8,0,0,0,8,12,8,9,7,4,4,4,0,0,0,4,12,12,13,13,4,13,12,3,0,0,0,0,4,4,4,9,4,9,8,4,9,9,8,3,4,3,13,16,9,12,12,9,12,4,16,11,4,8,12,11,48,16,31,60,91,100,70,65,79,59,33,27,36,31,25,60,94,79,48,16,9,12,28,32,24,20,20,16,11,12,20,23,13,14,24,20,7,12,12,25,11,8,16,23,25,7,20,12,21,12,20,28,14,4,25,4,4,9,4,4,17,16,16,18,12,13,4,8,8,16,27,36,29,12,8,8,16,20,25,29,25,11,20,16,16,20,15,24,28,29,17,8,9,4,13,16,9,18,8,8,8,0,11,16,16,16,12,16,15,16,12,9,4,8,7,12,3,16,7,4,4,8,11,9,8,4,16,25,8,8,12,16,11,12,16,15,12,4,12,9,16,12,9,9,8,8,13,12,8,0,4,12,9,8,8,9,4,4,4,3,4,4,8,4,8,12,12,4,4,4,4,4,4,4,4,4,8,12,4,12,8,0,0,4,12,9,12,0,4,0,0,0,4,4,4,7,17,9,25,20,16,17,21,20,20,20,15,21,8,16,12,4,12,7,21,16,12,20,19,12,9,9,16,19,15,7,16,12,12,16,12,4,0,4,12,12,0,0,4,4,4,4,8,12,7,9,9,11,12,8,9,8,8,12,3,4,4,9,12,4,0,4,4,12,8,0,8,12,4,0,3,8,12,3,8,8,17,12,8,7,16,4,0,0,8,9,9,8,4,4,17,16,7,4,8,8,4,4,4,17,8,4,4,4,4,4,8,4,8,4,4,9,4,38,8,25,4,3,8,8,12,8,0,0,3,13,12,8,4,4,4,4,4,12,12,0,0,8,12,25,28,32,24,12,7,21,41,31,16,16,23,28,20,20,20,7,21,27,35,47,39,40,31,23,16,8,8,28,40,23,36,40,28,29,32,23,15,24,16,8,16,40,43,36,61,100,100,100,100,100,100,100,79,100,87,59,63,80,75,63,54,63,55,56,49,35,48,32,41,44,29,21,9,17,12,30,57,47,28,20,24,16,8,0,8,12,4,4,12,12,8,4,9,7,12,4,9,12,17,4,4,4,4,12,8,0,4,4,16,20,16,8,8,0,13,15,20,36,43,47,55,51,52,51,51,71,76,63,63,51,68,74,95,84,81,82,78,71,67,63,71,93,72,64,76,88,61,44,63,52,24,12,29,37,16,20,28,36,31,32,45,52,60,59,55,47,51,54,52,36,24,20,23,29,12,9,12,4,28,41,31,32,12,4,12,20,23,32,32,31,31,31,39,36,32,28,29,27,23,23,25,4,12,8,4,17,27,33,12,21,28,32,28,16,16,16,8,4,12,25,15,12,13,34,32,21,12,9,8,8,12,8,0,7,16,20,21,9,4,21,17,4,8,7,12,9,12,4,8,12,12,8,25,17,17,24,23,40,32,13,4,9,16,13,18,24,12,4,18,17,32,100,100,100,100,100,100,100,100,100,100,100,100,100,100,100,47,100,100,100,100,100,100,91,100,100,100,62,100,100,100,100,100,92,29,100,100,100,100,98,53,100,100,100,17,73,97,100,69,76,77,29,63,36,16,29,20,43,94,16,43,32,27,75,100,100,100,94,4,8,32,41,16,36,100,100,100,100,100,100,100,61,100,67,100,100,100,100,100,100,100,100,100,60,48,61,63,47,60,67,79,71,48,31,23,46,56,50,55,47,36,32,37,23,36,19,8,21,8,16,33,12,27,100,100,0,0
0,0,0,0,0,0,0,0,100,100,0,0,0,0,0,12,9,12,4,4,4,4,4,3,0,12,12,0,12,9,9,16,15,20,15,8,0,12,9,12,8,13,12,3,3,9,8,4,7,8,3,0,4,8,8,3,4,4,8,9,4,12,12,12,8,4,8,8,8,12,8,0,4,0,12,12,4,4,8,12,13,8,0,0,0,0,12,12,4,0,4,0,0,0,4,4,4,4,0,4,4,8,9,8,0,0,0,3,9,4,8,9,4,8,8,12,8,9,8,4,12,7,0,4,8,12,4,12,20,79,68,70,47,35,59,86,34,45,60,94,35,25,61,63,41,26,8,17,34,39,48,32,9,12,4,16,20,20,17,17,23,20,12,13,16,24,3,13,17,25,12,25,16,12,16,12,25,24,17,18,24,16,18,14,18,8,8,16,11,0,12,0,20,20,0,8,20,32,25,8,12,12,25,12,20,20,16,7,20,20,20,24,24,23,19,24,21,9,4,13,4,12,8,4,22,18,12,3,11,25,16,15,17,12,29,21,13,9,4,3,8,12,7,16,21,13,8,4,21,16,4,4,8,12,17,16,7,16,11,8,12,16,12,8,8,8,12,4,0,12,12,12,9,12,4,0,4,8,9,8,8,4,8,12,8,0,0,0,4,0,4,12,12,0,0,0,3,13,13,4,12,12,9,12,4,12,4,0,0,4,8,9,8,4,0,4,4,0,12,12,8,21,16,4,12,15,23,25,12,12,8,20,23,20,11,20,16,4,12,8,12,8,13,24,27,29,11,20,23,33,23,15,11,16,17,16,17,9,4,8,7,17,4,4,4,4,0,4,4,12,7,0,12,12,8,9,9,12,8,12,8,12,8,4,8,4,0,0,3,12,8,0,4,8,4,4,8,8,12,9,9,8,8,12,4,16,16,8,4,25,4,25,8,12,4,4,7,12,7,8,4,4,4,0,4,12,12,0,0,0,0,0,3,13,7,9,9,3,4,12,8,4,12,8,4,3,4,4,0,0,0,8,12,4,0,4,4,4,4,12,12,0,0,8,12,20,27,27,23,11,16,24,27,36,29,16,28,32,20,11,16,16,20,36,44,52,43,44,39,35,16,18,18,42,44,28,23,32,23,41,32,16,12,16,20,9,8,42,47,43,43,89,100,100,100,100,100,99,70,83,92,67,67,71,67,54,60,63,65,52,51,52,43,36,31,36,26,26,16,12,18,38,60,69,44,27,20,11,12,4,4,16,17,3,8,9,7,4,4,8,8,9,8,9,7,8,8,8,12,3,0,4,8,9,11,20,29,12,8,9,13,20,24,36,39,56,50,47,55,50,47,60,59,72,71,56,60,70,78,89,70,78,90,88,59,55,76,66,76,71,67,79,56,49,59,61,33,12,17,23,19,20,20,44,49,27,31,43,52,56,64,51,51,58,64,41,20,15,28,28,12,0,20,25,34,40,52,44,20,9,12,20,32,23,36,40,35,35,43,41,15,24,23,28,23,28,20,4,7,8,4,26,45,23,16,24,27,36,32,16,12,12,8,16,22,37,36,16,25,23,20,12,8,17,16,4,12,7,0,17,15,12,8,13,12,12,4,9,13,3,17,13,16,4,12,17,8,12,19,12,25,32,19,36,36,16,4,9,25,12,13,16,12,0,4,8,12,13,4,8,9,9,100,100,100,100,100,100,100,100,100,100,100,100,100,100,47,18,33,100,91,100,100,43,100,85,100,77,100,100,100,100,100,100,100,68,78,100,100,100,100,66,100,28,100,27,76,75,11,62,16,30,23,42,31,34,45,78,48,100,100,100,18,86,18,4,91,36,37,23,100,100,100,100,78,100,100,88,100,100,47,100,100,100,100,100,100,100,100,51,48,64,76,51,63,77,69,69,52,36,28,36,56,47,56,66,29,24,28,40,43,37,7,15,25,74,43,30,20,100,100,100,0
0,0,0,0,0,0,0,0,100,100,100,0,4,0,4,12,12,4,8,4,8,4,8,8,4,8,12,4,12,13,0,11,15,15,15,12,0,12,9,12,12,9,12,4,4,4,8,9,12,12,3,0,4,4,4,12,8,4,4,4,4,8,9,4,12,9,4,8,4,12,9,9,8,4,12,4,9,3,4,8,9,8,0,0,0,4,12,4,9,8,8,8,8,8,4,12,13,8,0,8,12,4,8,12,8,9,4,12,8,9,8,4,0,0,4,12,9,0,9,12,4,4,0,0,4,4,4,3,12,55,100,8,45,20,100,36,50,32,31,52,65,58,24,45,25,36,64,23,34,56,62,77,52,32,12,17,11,20,20,20,23,20,8,4,29,33,8,8,9,4,12,11,12,20,20,8,16,17,3,8,29,30,9,4,9,12,12,21,12,9,16,27,32,28,32,9,25,25,17,8,16,12,12,12,20,25,12,16,11,12,20,24,23,33,20,11,15,26,22,12,4,8,8,9,13,8,12,7,35,23,16,12,0,12,11,4,13,8,3,16,21,9,8,12,8,8,12,8,12,16,9,8,4,12,16,11,12,12,12,4,12,8,4,0,4,4,4,4,12,11,12,12,9,12,8,4,8,3,0,4,4,0,4,12,12,4,0,4,4,4,4,8,12,4,0,4,4,4,4,12,12,8,9,8,12,12,0,0,4,8,4,8,8,8,9,8,8,4,17,17,11,12,12,8,4,16,28,24,9,4,12,12,24,28,20,23,25,8,3,4,8,13,8,16,28,24,19,33,12,30,28,20,16,3,12,7,8,8,3,4,12,12,4,8,8,8,4,8,4,8,17,4,12,12,4,0,8,12,12,12,12,12,4,0,4,0,0,0,4,8,8,4,0,0,0,4,12,8,0,0,12,12,0,3,4,21,20,7,4,28,51,32,7,4,4,8,8,8,12,8,3,0,8,9,8,7,12,4,0,0,0,4,0,4,9,4,4,4,8,12,3,8,16,13,4,8,4,4,4,4,8,8,4,0,0,8,12,12,8,12,12,0,4,12,7,25,27,27,23,24,20,24,20,19,28,27,32,33,25,8,12,16,19,31,39,47,52,43,47,52,40,12,12,28,44,33,20,36,44,35,25,4,12,12,11,8,0,25,39,47,51,72,100,100,98,100,100,100,79,71,97,79,67,63,60,58,55,64,47,61,63,59,56,31,28,16,30,33,13,9,25,32,66,68,56,39,20,12,7,4,12,13,12,4,0,4,8,4,4,4,9,3,12,12,8,8,8,13,7,8,13,4,12,12,12,21,28,16,12,8,8,16,19,40,39,52,56,51,63,60,39,60,55,63,76,65,47,66,83,93,83,74,95,97,59,59,59,63,71,70,67,70,74,49,55,52,32,11,9,16,23,28,20,36,44,36,32,47,61,43,55,43,61,63,55,40,23,20,33,32,16,0,29,38,30,49,56,43,27,13,16,24,28,20,32,35,40,43,39,37,16,28,23,15,24,23,20,14,16,21,20,16,23,37,15,32,27,31,32,16,16,13,20,33,31,36,36,33,23,38,16,16,8,12,12,4,12,20,17,13,11,7,7,12,11,12,21,9,8,7,3,17,21,4,3,12,12,25,32,21,29,32,29,36,31,24,12,7,15,17,4,8,9,9,8,8,12,8,0,4,4,4,4,4,4,12,8,8,3,100,100,100,100,100,100,100,100,100,100,100,100,100,100,100,100,100,100,100,100,100,100,100,100,100,84,100,100,100,63,100,65,100,93,100,100,100,100,100,90,64,25,77,100,81,100,38,100,100,25,99,65,13,26,16,12,53,60,100,50,82,52,100,16,100,85,100,100,100,100,23,41,100,100,100,100,40,100,100,51,47,52,77,63,59,76,56,56,64,51,35,40,43,48,40,32,31,32,24,50,61,48,28,12,24,32,0,33,25,14,100,100,100,0
0,0,0,0,0,0,0,0,100,100,100,0,3,9,3,12,12,0,4,0,4,0,4,8,8,3,8,8,7,9,9,11,16,20,20,17,4,8,9,8,12,9,12,8,9,8,4,4,7,8,4,0,8,9,8,12,12,8,9,8,4,4,0,12,12,8,9,8,4,12,9,9,12,3,12,9,0,4,0,4,0,4,0,0,0,3,12,13,8,0,3,4,3,7,9,8,4,8,4,12,12,0,8,12,8,0,12,12,4,0,4,4,4,4,4,8,9,9,9,12,0,4,0,4,4,4,4,8,12,68,8,71,34,25,100,100,100,54,100,63,54,41,34,12,13,38,8,22,24,43,68,60,37,37,4,3,8,25,20,19,29,12,8,12,28,28,20,25,30,24,12,20,12,12,21,7,12,13,4,4,22,21,16,3,13,13,17,21,26,22,21,8,29,15,8,14,12,17,8,17,11,7,12,16,20,12,4,12,21,16,16,20,19,20,16,12,12,7,8,12,8,8,0,0,4,21,12,4,21,33,20,17,8,4,7,4,9,8,4,16,20,8,12,11,8,9,9,17,12,12,0,12,9,16,11,11,17,7,17,4,4,8,9,8,4,0,0,4,12,8,4,0,12,9,12,9,8,4,4,4,0,4,0,12,12,8,9,4,13,13,3,4,8,4,9,8,4,4,4,12,8,4,4,4,12,12,0,0,8,12,9,12,4,8,13,4,12,4,8,13,11,12,7,12,4,8,15,19,12,12,12,3,21,27,27,23,16,4,3,7,9,8,8,9,20,16,42,28,8,12,11,12,4,4,7,16,3,12,12,9,8,12,12,8,4,4,4,8,9,12,7,12,11,12,4,4,8,12,12,12,12,12,4,0,4,0,0,0,0,4,8,8,4,8,9,8,12,9,12,12,11,9,8,12,8,12,16,12,4,25,4,29,17,4,4,4,4,8,8,17,7,9,8,12,12,7,12,8,4,4,4,4,9,4,3,8,0,4,8,8,4,12,15,12,4,0,4,4,4,4,4,0,4,0,4,12,12,12,12,12,12,4,8,7,12,16,28,32,28,24,20,29,25,16,45,39,32,20,16,8,8,29,32,41,43,43,47,47,47,56,30,9,11,19,32,23,28,40,47,41,3,22,18,21,21,3,3,16,37,61,67,67,96,94,100,100,100,100,86,85,66,92,71,64,60,67,55,47,51,55,63,63,56,41,21,12,24,35,21,12,38,40,52,63,59,52,29,3,12,8,12,9,12,8,12,4,3,4,4,3,0,4,12,12,4,4,4,4,4,4,8,4,12,12,8,12,28,29,12,12,12,16,28,44,43,43,43,56,63,56,39,55,65,47,59,55,64,84,90,93,71,75,92,83,63,58,59,59,70,74,62,85,68,52,55,43,32,11,4,8,20,28,23,31,49,40,50,61,52,56,56,45,52,60,43,39,31,32,32,23,11,4,15,30,30,58,47,43,41,9,20,23,25,11,32,40,35,47,44,27,19,23,25,11,20,25,16,9,16,20,28,16,21,28,27,31,32,27,27,24,12,4,20,19,26,36,28,23,23,24,20,16,16,16,4,4,12,28,29,9,3,8,11,25,12,8,11,18,12,21,24,16,8,4,13,21,11,12,29,20,28,32,36,31,32,28,16,20,20,21,12,9,8,13,8,17,9,13,3,0,4,4,4,8,8,12,8,0,4,0,4,4,8,9,8,12,15,100,3,100,9,100,100,100,100,100,100,100,100,100,100,100,100,100,100,100,100,100,100,3,100,100,100,100,100,100,100,100,69,60,45,55,100,100,100,65,100,100,49,50,34,0,16,25,8,27,82,8,100,100,100,44,12,84,58,100,100,100,100,63,68,39,100,100,100,100,100,100,60,100,60,59,51,69,63,48,65,62,51,39,40,48,45,31,25,44,58,35,39,61,50,16,4,25,33,12,0,23,70,52,100,100,0
0,0,0,0,0,0,0,0,0,100,100,0,8,0,8,12,12,0,0,0,0,0,0,4,8,8,3,29,7,17,8,12,16,16,16,12,8,8,3,4,8,9,8,12,9,12,0,8,12,3,0,4,8,9,8,8,12,8,13,12,3,0,0,12,12,8,9,8,3,12,13,9,12,4,12,8,0,4,0,0,0,0,0,0,0,4,4,4,3,8,8,4,8,8,3,3,4,8,8,8,12,4,8,12,3,4,8,8,4,3,4,8,8,8,8,3,4,12,9,12,4,8,9,4,12,8,8,12,8,23,60,37,4,65,100,83,90,96,80,36,50,40,41,18,13,4,9,11,20,32,43,23,12,29,9,8,4,16,16,25,16,16,11,7,24,29,20,20,30,32,18,24,12,9,21,20,17,8,8,12,13,11,16,16,9,17,7,9,12,12,8,16,12,12,7,8,3,12,8,8,12,16,16,11,16,13,8,13,16,21,20,20,11,16,15,16,9,4,9,9,17,4,4,13,9,12,13,8,7,12,16,16,12,13,8,4,4,4,4,8,24,16,20,24,17,8,4,3,17,9,9,16,12,7,16,12,12,7,12,4,0,12,12,12,8,0,0,8,12,8,9,8,12,9,12,8,9,8,12,4,9,4,0,12,9,12,12,12,4,4,4,0,4,0,8,9,8,12,4,12,4,0,8,9,16,16,0,0,12,12,8,12,8,13,7,12,8,0,3,0,3,8,7,3,12,8,16,20,21,11,16,12,8,20,31,41,16,12,7,16,17,4,4,4,12,15,23,25,4,4,4,12,11,13,17,16,8,3,16,12,12,8,12,8,3,9,3,8,8,12,17,7,16,3,8,8,3,8,9,8,12,12,3,9,3,0,0,0,4,0,3,12,8,12,9,12,3,13,3,12,12,0,4,12,12,4,12,8,4,4,4,12,8,4,0,4,4,8,8,8,12,4,9,8,8,12,7,9,8,4,4,4,8,4,9,4,4,8,7,3,4,17,20,11,8,8,4,8,4,8,9,8,8,9,8,12,12,12,12,12,9,12,3,12,11,12,24,23,23,24,16,24,20,19,35,43,37,20,24,16,12,28,32,27,31,43,52,43,51,43,24,16,20,16,36,39,41,35,52,42,8,8,14,16,3,3,16,21,24,60,70,67,84,95,99,100,100,100,100,83,64,89,79,55,68,71,60,47,51,55,59,63,55,32,9,25,26,9,16,16,28,44,65,81,59,35,20,12,11,12,7,13,7,12,7,12,7,8,12,21,9,3,12,8,0,0,8,9,7,8,8,9,8,4,8,20,32,15,12,16,12,16,31,43,48,35,35,48,59,52,43,47,47,51,68,77,89,74,91,93,59,67,83,92,63,55,55,63,79,74,71,70,63,60,63,53,20,20,17,4,13,32,40,48,43,40,40,52,47,47,47,40,61,47,44,43,39,39,45,24,20,9,8,4,20,27,31,44,27,9,19,24,11,20,36,36,40,48,39,36,32,29,16,11,16,16,16,8,12,38,27,16,11,24,36,35,27,24,27,37,21,8,9,12,22,23,16,20,28,23,23,20,20,38,22,9,9,27,29,12,8,4,12,11,16,13,12,0,8,25,29,12,12,9,16,16,12,8,25,19,32,31,43,49,19,20,24,20,16,24,20,4,8,3,8,9,8,8,4,0,3,13,9,8,8,3,3,4,4,4,12,8,3,0,3,12,11,16,17,17,16,8,3,9,9,9,100,4,100,35,25,97,100,100,100,100,100,100,100,100,100,100,100,100,100,100,100,100,41,100,38,66,88,41,20,50,100,13,100,63,29,21,46,16,39,37,32,57,61,25,85,49,34,100,100,80,100,100,100,100,97,100,100,100,100,100,100,8,100,100,60,56,55,54,56,52,73,72,57,41,31,43,36,54,29,21,39,44,44,39,23,12,9,21,37,11,0,29,20,52,100,100,0
0,0,0,0,0,0,0,0,100,100,100,4,8,9,8,12,8,0,0,0,0,0,0,0,4,4,12,27,50,16,3,8,11,16,16,16,12,12,8,0,4,0,4,12,9,12,0,8,12,8,13,3,4,0,4,8,12,4,4,3,3,4,4,8,8,4,4,4,8,8,8,13,12,4,12,4,9,8,0,0,0,4,0,4,0,0,0,0,8,12,7,9,8,4,8,7,4,12,12,4,12,8,12,16,12,4,4,9,13,7,12,8,4,4,4,12,8,12,12,12,7,8,13,9,12,4,4,4,4,21,8,49,100,27,100,94,80,65,25,3,29,12,34,17,12,20,25,17,12,29,27,23,17,12,8,0,8,20,16,3,16,16,11,12,16,20,16,16,12,16,0,12,12,3,17,15,12,9,12,13,17,12,8,17,16,12,17,8,0,16,23,16,12,12,16,21,12,17,9,3,7,15,29,13,8,17,13,3,12,16,20,25,12,12,16,16,4,13,12,12,17,22,8,8,4,8,0,12,8,8,21,20,4,25,34,23,23,43,30,35,45,49,20,15,16,16,13,3,0,0,0,4,3,9,13,8,12,7,12,8,0,12,12,12,12,0,0,12,12,12,9,12,12,9,12,8,9,8,12,12,0,4,9,12,9,8,12,12,0,0,0,0,0,0,4,0,4,12,9,12,0,4,12,9,25,16,0,0,12,12,12,12,12,9,16,12,9,9,8,0,0,4,8,8,7,12,12,12,12,20,29,21,16,18,42,27,20,25,11,20,16,12,4,7,13,20,20,8,4,4,16,27,38,18,12,12,0,13,17,16,11,12,7,12,4,4,4,3,12,11,12,12,7,12,12,12,3,4,0,3,12,8,4,0,4,0,0,0,3,9,3,3,12,13,4,9,9,8,4,8,17,9,4,12,12,0,4,4,8,8,4,3,3,8,4,4,8,3,4,9,8,4,4,9,4,8,8,8,9,8,4,3,8,9,4,9,8,8,12,8,0,12,15,12,4,4,4,12,8,12,9,12,12,4,12,12,8,12,12,8,13,7,8,11,16,7,20,20,24,24,20,25,33,50,48,39,23,25,24,23,23,27,27,28,20,54,47,52,51,45,23,28,16,20,35,48,40,36,36,31,46,21,8,13,7,16,24,20,41,72,70,58,84,95,87,100,100,100,100,91,78,60,79,67,63,63,59,50,47,55,60,72,59,37,0,4,0,0,12,15,41,60,63,63,52,24,16,16,12,12,8,8,12,3,8,11,20,17,21,16,3,12,25,12,4,4,12,8,12,7,8,8,12,12,16,28,37,29,8,12,3,21,40,47,43,43,35,41,65,51,39,40,57,72,79,88,79,76,67,66,60,68,95,91,68,47,60,80,74,70,70,79,73,51,62,57,11,25,16,0,12,37,48,50,53,27,35,47,52,51,55,48,43,47,40,40,35,47,40,28,15,12,8,16,20,20,23,36,29,13,20,16,20,23,31,40,31,31,31,28,28,19,16,11,16,16,17,9,8,24,32,20,20,24,36,40,23,20,37,27,12,0,12,17,4,16,17,12,32,27,23,16,12,11,12,11,23,32,16,21,7,4,12,21,11,3,4,4,4,16,21,12,20,13,16,12,7,11,16,20,45,39,44,40,25,11,23,25,7,23,36,26,8,13,21,11,9,16,17,9,14,9,12,16,26,9,4,4,3,13,21,16,8,0,8,12,7,21,16,17,16,12,4,8,4,8,8,4,9,4,8,4,8,12,100,100,100,100,100,49,100,100,100,100,100,100,100,100,100,100,100,77,61,100,71,13,100,100,100,100,100,9,100,100,95,80,100,78,100,36,20,87,88,100,100,100,100,100,100,100,100,100,100,100,100,100,100,100,100,100,47,69,52,59,95,43,55,60,35,27,45,61,39,52,50,8,41,35,31,32,16,12,4,25,37,12,0,42,8,36,100,100,0
0,0,0,0,0,0,0,0,100,100,100,8,12,12,25,21,25,21,0,0,0,0,0,0,0,0,8,24,3,18,8,3,12,11,15,20,12,12,8,0,0,0,0,12,9,12,0,4,4,17,8,4,0,0,0,8,12,4,4,3,8,9,4,4,9,13,3,0,8,13,12,8,12,8,12,12,9,12,0,0,0,8,9,8,4,0,4,4,12,8,8,9,4,9,7,8,8,12,12,0,12,12,12,16,12,0,4,4,4,3,12,8,0,4,4,12,8,8,12,8,16,18,3,13,12,0,0,0,0,8,12,60,9,71,72,70,45,43,40,29,15,29,21,17,23,40,42,18,0,8,16,33,23,4,20,17,16,16,8,8,16,16,8,3,16,20,16,7,4,4,3,4,12,8,8,12,8,4,21,8,8,8,4,13,12,0,8,3,12,16,13,29,8,4,17,16,11,12,4,8,12,20,16,4,13,21,9,12,18,21,25,20,16,17,21,12,17,8,12,12,4,16,30,18,16,4,9,12,12,8,17,16,3,23,86,60,34,73,42,45,67,82,54,24,16,16,13,12,4,4,4,8,13,17,3,4,12,12,8,12,4,12,8,12,12,0,0,12,9,12,12,16,12,13,8,8,4,9,12,8,0,4,0,4,0,0,12,12,0,0,0,0,0,0,0,4,0,7,9,8,0,3,12,9,16,16,0,0,8,12,12,8,8,9,7,8,9,9,12,0,0,0,4,12,7,4,4,4,4,16,16,16,23,25,17,16,20,15,24,28,20,12,12,11,9,12,12,8,0,4,16,36,32,8,9,0,12,9,4,13,21,21,12,9,13,3,0,8,16,16,11,12,7,16,21,17,13,4,4,8,8,4,0,0,0,0,4,4,9,4,9,4,9,3,4,4,4,3,4,9,17,8,8,11,17,4,4,0,4,4,4,8,8,4,4,4,8,8,4,4,4,4,4,0,4,0,4,0,4,4,8,8,3,3,4,3,12,11,12,7,9,9,11,12,4,0,0,12,12,8,9,4,12,4,0,4,0,8,9,9,8,12,8,12,12,12,24,24,29,23,20,24,28,36,44,40,33,12,24,31,31,31,36,32,20,42,43,39,47,36,28,23,16,23,40,35,31,31,27,58,52,27,21,9,21,29,32,31,43,72,74,63,76,83,87,95,100,100,100,91,59,58,85,75,59,67,70,63,51,60,56,55,68,45,16,8,9,8,17,37,66,67,64,60,54,12,12,12,12,8,13,8,7,12,3,12,16,12,12,7,4,25,28,11,8,9,4,8,8,12,3,7,17,17,20,32,41,23,16,13,4,21,36,43,43,51,48,23,49,50,43,49,61,68,83,91,92,77,59,63,56,73,95,100,67,50,60,83,83,63,80,83,67,56,72,60,29,16,12,13,24,32,48,47,45,19,45,51,47,63,72,52,43,52,48,40,32,52,52,32,20,16,21,21,25,16,29,24,21,3,12,16,37,27,50,40,32,36,28,24,20,20,16,21,20,8,4,0,4,21,28,28,19,24,36,41,24,29,15,24,21,12,16,29,22,13,13,12,23,28,20,16,9,13,25,24,14,20,12,7,7,12,12,12,3,8,8,12,8,8,4,17,16,4,12,7,7,24,24,16,36,49,32,31,24,25,23,16,12,24,31,25,4,8,7,11,13,12,4,9,3,18,25,19,12,17,26,13,9,9,13,7,12,4,12,16,30,12,17,16,12,21,9,17,0,12,8,3,4,8,12,13,3,13,12,4,100,100,100,100,100,100,100,100,100,98,100,100,100,100,100,100,100,100,100,100,50,55,47,100,69,100,100,100,100,100,100,100,100,100,100,100,81,100,100,100,100,100,100,63,100,100,100,100,40,25,100,87,100,52,65,75,25,100,90,44,39,48,44,39,35,43,51,47,41,12,23,36,23,20,8,12,16,37,24,0,64,40,78,32,100,100,0
0,0,0,0,0,0,0,0,100,100,100,12,12,12,21,64,66,45,0,30,0,30,4,0,4,0,8,12,3,4,4,12,7,16,28,23,12,8,12,4,4,4,4,12,9,12,0,3,4,12,8,0,0,0,4,12,8,4,3,4,8,4,9,4,4,4,4,0,8,9,8,12,12,12,12,8,9,8,4,4,4,12,4,12,8,9,8,8,12,4,4,0,8,13,8,9,12,16,12,0,8,9,8,7,12,4,0,0,0,0,8,12,4,8,8,4,4,4,12,8,12,4,9,9,8,0,0,0,0,12,12,4,4,39,4,31,27,40,31,28,27,32,32,22,46,52,40,29,29,12,12,32,40,18,32,17,16,3,4,12,17,0,4,8,16,20,12,3,8,12,17,13,8,11,8,3,0,9,12,9,8,4,8,4,7,4,8,13,16,20,9,23,26,13,3,16,16,7,8,8,16,24,21,8,4,12,4,8,8,21,13,16,20,7,12,4,11,21,4,3,9,12,16,3,12,12,0,3,8,8,8,16,9,34,63,62,71,100,90,98,94,72,59,61,29,12,8,12,9,9,12,8,12,12,12,4,12,7,8,12,4,12,4,8,12,4,4,7,9,8,8,12,3,4,4,8,12,4,4,4,0,0,0,8,9,8,12,12,0,0,0,0,0,0,0,3,9,8,0,4,0,4,4,4,12,12,0,0,4,4,4,8,9,8,4,8,4,13,8,0,0,4,0,7,12,4,4,4,0,4,8,25,27,25,8,13,21,20,33,31,23,16,16,16,8,4,4,8,4,8,12,28,28,12,4,12,12,0,3,13,12,12,3,0,0,4,4,8,12,16,11,8,12,15,12,12,8,4,4,4,4,4,0,4,4,4,8,8,4,4,4,4,4,8,8,8,9,8,4,4,8,17,8,11,12,8,12,4,0,0,0,4,4,4,12,8,0,0,4,4,4,4,4,9,4,9,4,8,4,4,4,3,8,8,8,8,7,20,16,12,13,4,8,12,8,0,4,12,8,4,0,12,12,4,8,4,8,3,4,4,0,7,9,13,16,12,25,23,31,37,20,28,28,32,40,40,28,12,24,31,36,35,35,31,33,19,31,40,43,40,20,15,12,33,39,35,31,40,48,51,56,50,21,9,17,24,31,47,59,71,74,72,67,74,79,95,100,100,100,92,74,40,59,71,58,76,78,76,60,59,56,56,55,43,33,11,12,4,25,57,69,63,65,54,79,7,4,12,4,9,8,0,12,16,12,4,7,9,8,4,4,20,23,20,12,9,9,8,8,4,13,7,12,14,20,32,36,24,16,17,9,16,35,39,43,54,70,45,31,55,65,48,52,47,63,80,82,80,66,86,49,51,88,78,79,76,55,84,83,59,67,74,76,54,63,61,37,20,16,20,31,40,44,35,31,19,40,56,47,67,69,39,51,47,47,48,37,40,51,40,20,20,11,21,24,20,24,29,12,3,12,23,31,41,32,37,28,31,27,23,16,16,21,12,20,14,16,8,3,8,16,24,24,28,35,36,23,24,20,16,21,16,20,20,7,4,12,24,28,20,15,16,4,3,17,16,4,8,9,17,12,8,7,9,4,8,8,8,12,4,4,3,12,9,12,12,12,29,28,16,36,45,19,27,33,19,25,8,16,29,31,24,4,8,9,13,9,0,4,8,9,4,12,20,12,12,16,9,11,9,8,4,17,8,3,25,16,17,13,11,8,12,13,12,4,8,8,12,17,4,3,8,7,3,4,7,100,100,100,100,100,100,100,100,16,100,100,100,100,100,100,100,100,100,100,100,34,100,73,68,100,100,100,51,100,100,100,100,32,100,100,100,44,100,100,100,100,90,100,87,100,100,100,100,36,29,71,86,76,47,77,41,84,83,90,45,36,43,47,52,44,44,51,58,29,20,27,27,25,12,12,4,16,37,25,0,63,100,75,70,100,100,100
0,0,0,0,0,0,0,0,100,100,100,8,29,50,21,45,54,45,0,27,65,27,8,9,8,0,8,12,4,4,0,12,12,12,28,28,12,4,4,4,4,4,4,4,12,9,9,12,12,8,4,4,4,4,8,12,4,8,8,8,13,8,0,4,0,0,0,0,4,3,13,16,12,8,12,4,0,4,8,12,4,4,4,8,9,8,8,9,8,0,0,0,0,8,8,9,8,12,8,0,4,0,4,4,8,8,3,0,4,0,4,0,4,0,4,0,4,0,7,12,4,0,4,0,4,0,0,0,4,12,11,9,7,8,8,12,27,31,31,35,28,28,35,38,47,69,64,35,23,17,12,32,39,27,31,32,29,14,21,13,4,9,4,9,25,19,8,14,21,12,3,4,8,15,26,4,0,8,12,8,12,0,8,9,3,0,4,8,21,23,27,33,12,13,12,12,21,20,12,8,20,19,17,4,13,17,18,4,7,12,4,16,25,12,14,0,16,12,13,4,4,0,8,12,8,12,4,4,4,12,8,8,9,11,27,63,96,98,43,65,67,48,77,71,45,12,8,4,4,8,8,12,12,12,8,8,7,8,9,8,13,12,0,4,4,4,12,7,0,4,8,12,3,0,0,12,12,0,0,4,0,4,0,8,9,8,12,12,0,0,0,0,0,0,4,8,4,8,0,0,4,4,4,4,12,8,0,4,4,4,4,8,13,8,4,8,8,4,4,0,0,3,9,8,4,4,8,8,4,4,0,12,20,15,11,16,13,8,25,27,28,19,11,21,16,3,0,3,0,4,4,16,20,11,8,7,12,4,0,12,12,3,9,9,12,14,4,4,12,21,11,4,8,15,16,12,8,3,12,9,4,9,4,9,8,4,3,7,4,8,4,0,0,0,4,0,8,9,8,4,9,9,17,20,7,17,11,8,4,4,4,0,0,0,8,12,8,9,12,3,0,0,0,3,9,4,0,4,4,4,4,12,8,0,0,4,16,12,21,16,8,12,3,12,12,4,8,8,4,0,0,12,12,8,12,4,4,8,8,4,8,7,4,12,15,16,11,33,44,28,25,32,28,19,36,36,27,20,16,32,31,43,57,40,27,28,32,40,40,32,16,12,8,33,43,39,40,52,55,61,47,41,12,9,12,12,37,69,79,79,74,72,72,79,74,95,100,100,100,96,69,43,47,77,70,71,83,84,59,59,56,47,55,43,31,23,11,20,28,61,60,78,22,100,71,12,4,0,12,12,12,8,8,16,17,8,3,0,4,0,8,15,20,11,4,9,8,4,8,12,9,12,12,17,28,27,32,12,12,12,4,25,39,44,43,50,47,43,44,51,64,51,56,52,47,68,89,75,97,76,48,60,76,80,79,71,63,74,87,72,55,71,70,67,54,44,27,36,30,32,31,44,44,31,32,19,41,61,51,60,52,66,68,51,39,43,36,40,51,44,28,23,25,11,19,20,24,20,8,8,21,31,35,40,27,20,33,31,27,28,21,16,12,4,8,9,17,8,12,17,4,12,29,40,32,45,36,28,33,9,7,16,7,16,16,3,17,24,23,16,20,21,4,9,0,9,13,13,13,4,12,4,4,0,9,22,18,13,13,9,8,21,9,9,12,12,3,25,28,12,37,36,19,28,19,32,29,12,11,15,27,28,13,21,8,8,12,9,4,13,9,9,9,16,16,8,21,13,15,12,3,8,13,8,12,16,17,4,18,12,8,17,8,3,17,12,4,16,16,3,3,12,11,12,3,16,100,8,100,12,100,100,100,100,22,100,100,100,100,100,100,100,100,100,100,100,100,100,78,100,100,54,100,100,100,100,55,100,100,100,100,100,100,100,100,100,65,50,100,100,100,100,100,40,36,35,60,75,69,59,81,64,47,83,44,43,32,44,55,51,40,39,48,31,19,36,40,20,12,12,12,0,12,37,24,0,72,12,65,12,100,100,0
0,0,0,0,0,0,0,0,100,100,100,4,43,4,43,21,4,21,4,21,9,21,12,9,12,4,8,9,9,8,0,12,12,8,19,29,12,9,9,8,0,0,0,0,12,9,13,7,12,8,0,3,13,13,8,12,0,12,13,4,8,4,0,0,0,0,0,0,0,4,0,12,12,8,12,3,0,0,12,12,0,0,0,8,0,9,8,4,8,0,0,0,8,12,8,12,8,3,0,4,0,0,0,0,4,12,12,9,8,4,4,8,4,8,4,4,8,13,8,12,8,4,4,4,4,4,4,4,8,7,12,9,16,12,4,12,19,27,39,53,38,24,40,47,51,72,72,53,24,9,7,33,44,22,25,38,27,17,32,29,16,18,7,4,17,20,8,8,12,3,4,8,8,21,16,4,7,8,3,8,16,4,4,0,4,13,7,9,8,16,8,12,12,4,8,8,8,12,9,12,20,12,4,0,3,16,7,8,8,3,8,7,7,8,8,9,12,9,4,4,8,8,9,12,4,8,8,8,9,16,9,9,8,20,32,43,67,62,45,55,61,28,61,74,69,29,9,0,4,12,8,8,9,8,8,12,7,9,8,8,9,8,0,0,0,4,12,8,0,0,8,12,4,0,4,12,8,0,0,8,9,8,0,4,0,4,12,12,0,0,0,4,0,4,8,9,12,3,4,4,4,8,9,4,8,4,0,3,13,13,8,0,8,9,4,12,4,0,0,0,4,4,4,4,0,0,8,8,13,3,0,4,12,16,12,16,12,8,17,20,24,28,30,16,24,16,13,3,0,0,0,4,12,7,8,7,7,8,8,11,13,7,3,4,8,8,7,13,12,12,12,4,12,21,24,16,8,8,12,0,9,4,0,4,9,4,8,8,9,12,3,0,0,8,9,8,0,4,0,4,0,0,12,15,12,8,12,3,4,8,8,4,4,4,4,4,0,3,12,9,4,4,0,4,0,4,4,0,8,12,4,7,13,8,8,9,16,12,16,15,11,12,3,12,8,8,12,4,0,0,0,12,12,12,12,4,4,3,4,4,4,12,8,12,15,20,20,24,27,32,20,27,28,20,27,27,32,37,21,20,27,49,47,39,40,35,43,36,28,20,16,8,17,42,40,40,43,51,55,43,43,28,20,13,4,21,32,78,87,78,78,72,67,74,74,90,100,100,90,82,71,55,48,68,83,72,71,79,63,68,55,56,55,48,39,40,27,27,27,55,74,56,79,33,68,17,9,8,7,12,12,8,8,8,17,16,8,0,4,4,17,20,20,11,4,4,4,8,4,8,9,8,3,21,19,19,25,8,12,16,11,29,54,35,53,47,52,64,47,52,51,64,58,51,56,72,71,80,92,71,73,64,64,67,63,68,76,92,74,59,64,67,80,74,69,46,19,35,38,28,40,35,43,35,28,24,31,47,60,51,51,64,68,56,45,36,36,49,50,43,32,29,24,27,32,20,20,20,17,4,21,31,35,39,40,29,15,28,23,19,11,12,17,13,7,13,8,4,26,16,4,4,33,43,32,32,41,27,29,4,7,17,3,12,15,25,16,16,20,21,21,16,8,16,17,9,16,16,4,4,4,4,4,4,12,21,13,13,3,3,17,16,4,4,16,21,9,25,20,12,28,23,29,20,20,37,27,29,25,16,23,24,14,16,12,13,12,4,13,3,8,13,8,16,15,8,8,13,11,12,8,21,8,12,12,15,21,3,12,13,8,8,9,8,16,25,4,8,3,20,21,4,7,12,7,16,16,16,16,12,8,38,100,100,100,100,100,100,100,100,60,100,100,100,100,100,100,80,100,100,100,100,100,100,100,100,72,100,100,100,100,100,48,100,100,60,92,100,100,100,100,100,100,44,36,43,55,64,47,77,76,47,51,40,44,47,31,31,56,56,27,44,40,25,37,61,56,72,38,12,13,8,16,21,37,34,8,12,36,83,100,100,100
0,0,0,0,0,0,0,0,100,100,0,0,20,47,20,8,12,12,8,12,12,12,9,12,8,8,3,4,8,12,4,8,16,3,16,20,16,8,12,12,0,0,0,4,12,9,8,17,9,8,0,4,4,4,12,12,0,12,8,9,3,0,0,0,0,0,0,0,4,4,4,12,8,8,12,4,4,4,12,8,0,4,0,3,9,4,12,12,8,0,0,4,12,8,12,12,8,12,8,8,4,4,4,4,0,12,12,4,8,8,9,4,4,4,4,8,8,8,9,13,8,8,12,12,8,8,12,4,4,8,12,13,16,12,0,12,16,33,35,32,19,24,27,32,34,58,60,35,25,4,12,28,40,21,30,43,52,47,49,33,20,35,4,8,9,11,12,7,12,4,3,18,3,9,12,21,11,12,8,12,16,12,4,4,4,12,8,13,18,12,4,8,8,12,8,8,9,0,4,16,21,8,8,4,17,20,11,8,4,8,16,8,4,0,8,0,8,8,4,21,12,4,4,4,4,3,0,3,8,20,13,8,8,21,23,32,56,58,53,30,36,33,68,82,60,32,4,4,8,4,12,8,0,4,12,12,8,9,8,4,0,4,0,0,0,3,12,8,0,0,8,12,4,0,8,12,4,0,4,12,4,12,3,4,4,3,12,8,0,0,0,8,9,4,12,8,7,4,8,12,4,9,4,0,4,0,0,8,4,8,7,12,4,12,9,12,4,0,0,0,3,9,3,0,0,4,8,8,4,4,0,0,4,8,8,7,16,16,13,8,17,20,16,24,28,20,12,0,4,0,0,0,4,8,9,13,12,4,8,12,13,12,3,4,13,26,20,9,12,3,4,7,20,18,25,16,3,8,12,4,4,0,4,4,0,4,4,0,7,12,4,4,0,12,9,12,3,13,13,3,0,4,12,11,12,4,3,8,8,3,4,4,4,4,4,4,12,7,4,4,8,8,4,4,4,4,8,4,9,8,4,12,4,9,8,12,16,12,12,15,15,16,12,4,4,8,12,4,0,0,0,12,12,12,12,8,8,8,4,8,4,12,12,16,20,20,27,33,20,28,23,23,20,20,28,28,37,45,29,16,32,39,43,52,40,48,56,50,21,8,16,20,24,23,28,41,53,56,47,51,44,23,20,4,4,25,31,69,78,78,79,77,59,75,78,91,99,90,91,91,78,59,43,65,74,72,77,83,70,72,64,47,47,47,43,39,39,45,31,55,61,48,43,32,20,7,8,8,7,3,4,4,8,4,9,11,12,4,8,12,7,20,20,16,0,4,8,12,4,4,0,4,3,12,11,11,16,16,16,29,23,24,31,39,48,47,47,59,56,39,43,64,62,59,59,74,89,74,87,75,71,55,47,51,51,56,72,79,71,59,63,58,76,75,55,32,25,27,29,27,41,44,48,43,33,29,35,48,55,55,55,63,60,47,40,36,40,53,47,35,28,16,28,43,49,28,20,20,12,4,20,36,35,43,48,28,12,16,20,24,21,3,0,3,12,7,12,9,13,21,4,4,42,43,36,20,32,27,16,4,17,7,8,7,16,20,24,17,17,23,15,17,26,20,26,18,47,33,4,13,13,18,13,17,7,17,4,9,9,9,13,21,14,27,3,25,4,20,21,17,20,20,20,11,15,20,24,24,16,20,33,16,7,4,8,4,4,8,12,17,8,8,17,21,16,4,4,0,3,8,8,12,12,8,13,16,17,0,3,3,3,4,12,3,21,12,8,13,9,24,25,4,3,20,20,7,20,29,24,20,12,16,25,42,80,100,100,100,100,100,100,100,100,100,100,100,100,100,100,100,100,100,100,100,100,100,100,100,100,100,100,100,69,100,100,100,69,100,100,100,100,31,52,43,35,43,47,43,47,72,63,51,51,39,43,57,40,27,52,53,23,40,36,12,98,29,100,100,44,8,20,36,29,24,84,70,4,4,39,8,100,100,0
0,0,0,0,0,0,0,0,100,100,100,0,13,9,13,12,12,12,12,12,12,8,9,8,4,25,8,13,3,8,4,9,11,12,8,25,16,12,11,12,4,4,0,8,12,4,21,16,0,4,0,0,0,0,12,12,0,12,12,0,4,0,0,0,0,0,0,4,8,8,4,4,4,8,9,9,8,8,12,8,9,8,4,4,4,12,8,12,12,4,0,8,12,3,12,8,12,12,0,4,0,0,8,12,4,7,12,8,4,9,3,0,4,4,4,3,4,4,4,3,13,8,8,8,12,7,12,4,4,3,4,4,12,12,0,12,16,20,19,20,20,24,37,32,30,64,52,23,21,4,12,20,23,28,40,61,41,40,36,9,9,32,32,16,4,8,12,12,21,8,8,4,9,3,8,11,25,20,0,16,16,12,9,3,0,8,13,9,9,13,12,8,4,8,8,4,4,3,4,16,12,12,9,4,16,24,21,8,13,21,16,3,4,12,37,9,31,29,8,31,25,0,8,9,4,8,8,8,12,16,12,0,0,12,16,16,40,51,45,28,47,37,41,35,40,20,9,8,12,8,8,12,4,0,12,12,4,0,4,0,0,0,0,0,0,8,12,3,0,4,4,12,8,0,12,12,0,0,8,12,9,12,7,13,13,12,12,4,0,0,0,8,9,4,9,8,7,9,9,8,4,0,4,0,0,4,4,8,4,8,8,13,9,13,8,12,8,0,4,0,4,0,4,0,0,8,12,3,0,4,4,4,4,4,9,17,20,20,8,8,13,9,17,33,27,23,20,12,8,4,4,4,4,8,9,9,8,4,8,7,13,7,4,4,3,12,20,9,12,8,9,16,16,12,8,8,3,16,16,8,0,8,12,4,4,4,9,12,12,9,9,8,4,12,9,12,4,4,4,4,0,8,12,8,0,4,12,7,8,8,4,4,4,0,0,0,8,12,4,4,3,4,4,8,8,8,8,4,0,4,3,12,9,0,4,8,12,12,11,15,20,16,12,3,4,4,8,8,4,4,4,12,7,12,11,12,3,0,4,12,12,12,12,29,19,25,41,23,16,20,23,20,20,20,37,27,15,36,37,20,41,52,47,48,40,35,51,45,4,8,23,36,35,32,23,23,32,40,48,51,49,32,29,3,12,28,39,59,70,75,67,63,59,80,86,86,86,91,87,92,87,81,47,43,81,74,67,74,74,63,68,56,39,56,51,43,39,39,43,47,43,43,39,32,16,8,7,13,12,3,0,8,12,4,4,4,8,8,12,7,16,16,24,25,4,12,7,12,8,0,0,0,12,12,12,11,21,25,20,20,23,23,45,43,39,47,51,55,51,39,56,55,63,71,68,79,87,91,96,89,94,69,56,47,51,47,72,80,55,65,67,67,63,68,55,28,17,16,25,8,28,36,43,48,28,37,35,35,56,55,55,59,50,55,47,40,44,48,41,20,12,12,37,56,47,32,29,32,34,13,20,27,36,52,47,32,12,12,12,29,16,4,7,12,3,12,11,13,8,3,12,8,33,40,27,29,24,27,16,3,12,8,4,8,12,20,46,20,23,46,41,21,21,16,13,11,23,29,9,16,21,13,26,21,8,9,4,4,4,4,0,8,18,0,18,12,12,23,25,16,17,21,16,18,25,20,12,12,20,20,16,24,20,7,8,9,8,12,16,21,16,4,9,8,8,9,3,4,4,4,9,4,8,4,12,12,16,3,17,9,7,12,12,8,4,9,13,0,8,20,16,8,12,24,24,3,17,29,32,32,20,20,12,9,25,36,100,100,100,100,98,100,100,100,100,79,100,100,100,100,100,100,100,100,100,100,84,78,100,74,100,100,100,100,49,100,100,100,100,100,100,40,43,45,36,51,53,36,82,73,47,58,51,69,52,48,40,40,44,40,37,35,24,12,36,70,43,76,37,9,51,4,51,33,94,69,4,0,8,8,100,100,0
0,0,0,0,0,0,0,0,100,100,100,0,12,9,12,12,12,12,12,12,8,8,0,8,0,19,46,16,3,4,0,4,16,16,11,16,16,12,11,12,3,8,9,9,12,8,8,21,4,4,0,0,0,0,12,12,4,8,8,4,0,0,0,0,0,0,0,8,12,4,0,0,0,4,0,12,12,12,12,12,9,12,8,9,4,12,8,12,12,8,4,9,8,3,12,8,12,16,12,4,4,4,17,7,12,7,4,4,4,4,4,4,8,13,12,3,0,0,0,8,12,8,0,3,8,7,3,4,8,8,4,4,12,8,4,12,16,16,12,12,8,16,31,36,30,47,45,16,3,4,4,4,16,32,43,49,23,36,16,20,48,73,47,20,12,8,12,7,20,26,4,8,12,4,16,16,28,34,20,29,21,8,0,4,0,4,4,4,4,12,21,4,9,3,0,0,4,4,4,12,8,0,0,0,4,20,21,8,4,11,17,4,12,11,39,73,13,47,40,59,50,12,8,12,3,3,4,4,4,12,11,12,12,8,4,43,38,30,12,18,29,39,25,29,21,9,9,3,12,12,8,12,3,0,12,12,0,0,0,0,0,4,4,4,4,8,12,4,4,3,9,8,12,4,12,8,0,0,8,12,8,8,3,4,4,7,12,4,0,4,0,3,0,4,0,4,8,12,4,4,0,0,0,0,0,8,12,4,4,8,4,9,21,4,9,8,4,4,8,4,0,0,4,0,4,12,12,8,9,8,8,8,4,4,0,4,16,11,8,12,12,3,13,21,16,28,37,25,18,8,4,4,3,4,4,9,0,8,8,8,9,8,0,0,8,13,16,4,16,17,17,16,7,12,12,13,21,21,16,8,4,12,16,4,0,4,3,12,8,0,8,9,8,4,8,12,4,4,4,8,9,7,8,9,8,12,11,12,3,4,9,12,4,4,4,4,4,4,9,12,4,0,4,4,4,4,4,0,0,0,4,12,8,0,4,4,12,11,12,20,24,16,12,12,13,12,4,4,4,8,9,7,12,8,16,12,8,8,4,17,20,16,16,27,33,19,32,20,20,15,20,16,20,27,27,28,16,29,28,36,35,39,43,35,31,31,43,41,4,21,41,43,47,49,37,28,33,29,36,43,31,44,46,17,24,27,47,55,67,63,64,63,59,76,86,100,87,91,87,96,87,66,54,40,91,91,62,71,75,67,67,65,43,51,43,43,39,43,47,43,52,51,43,45,12,4,17,8,3,0,4,12,16,13,13,8,0,3,4,12,11,12,20,25,4,12,8,8,12,4,4,0,12,12,16,20,24,24,16,20,37,36,40,39,43,47,47,43,55,47,52,56,73,76,68,80,100,100,75,70,66,71,69,60,69,57,58,93,71,48,58,67,73,54,57,25,8,4,4,4,24,32,40,35,27,31,40,31,43,55,59,63,60,69,63,58,27,36,28,8,9,26,54,60,43,25,20,43,41,4,16,28,35,43,43,40,20,12,8,20,25,12,16,12,8,11,16,8,12,4,16,21,25,28,37,28,33,32,3,16,21,8,4,8,16,20,40,50,23,12,23,24,12,3,4,11,16,12,8,12,20,9,12,3,9,4,8,12,8,8,13,8,4,8,4,8,20,54,36,7,4,16,25,9,21,16,18,4,30,16,21,33,19,16,12,4,4,12,20,20,16,9,0,4,13,9,8,7,8,4,4,4,12,16,15,15,16,13,21,17,21,20,20,17,4,9,12,17,18,9,22,11,16,24,23,22,4,20,23,36,28,20,25,17,12,30,51,100,55,100,100,100,100,100,100,100,100,100,100,100,84,79,100,100,100,100,100,100,100,100,100,100,100,41,100,100,100,100,100,100,100,44,48,31,45,56,40,45,85,62,72,41,100,85,43,48,48,44,31,36,31,36,19,32,26,41,73,28,49,40,67,53,72,72,24,38,3,9,11,27,100,100,0
0,0,0,0,0,0,0,0,0,100,100,0,12,9,12,12,12,8,9,8,4,3,9,3,0,21,8,9,4,0,4,0,8,16,20,16,12,16,16,12,4,12,9,9,12,8,35,12,22,3,0,4,0,4,12,8,8,8,9,3,0,4,0,4,4,4,4,7,12,4,4,4,4,0,4,12,12,12,8,12,13,4,12,9,12,12,8,8,9,8,9,4,8,4,12,7,12,16,12,0,0,0,12,12,12,12,0,4,4,8,4,8,12,4,12,4,0,0,4,12,11,12,12,8,4,8,8,4,4,3,4,4,0,0,8,12,12,12,8,7,4,22,37,28,26,36,24,12,0,4,4,8,13,24,41,32,9,21,12,33,37,46,52,20,11,9,7,16,24,11,4,21,21,8,12,20,27,30,29,19,11,12,4,4,4,3,4,8,8,7,20,13,8,12,7,0,7,9,4,7,7,8,4,4,8,13,12,4,4,12,13,8,16,7,43,24,71,81,71,71,39,24,8,12,12,12,8,4,4,4,12,12,8,4,8,31,78,20,9,17,21,17,4,3,4,4,9,4,12,4,12,4,4,0,12,12,0,0,0,0,0,3,12,9,8,9,11,9,8,9,4,17,11,8,4,4,0,0,8,8,8,8,0,0,0,8,12,3,0,3,9,3,0,0,0,0,4,8,8,4,4,4,0,4,0,8,12,4,4,8,4,13,11,9,4,4,8,9,12,3,0,0,3,9,3,12,12,12,12,4,4,3,8,9,8,0,3,4,12,16,12,4,12,12,13,34,32,20,9,7,3,3,16,21,9,4,7,7,8,4,9,4,9,4,7,13,7,4,7,12,12,12,0,8,16,12,7,21,8,4,8,17,21,8,9,8,4,8,4,4,8,9,4,4,4,4,0,0,8,9,4,12,3,4,13,16,12,8,12,4,3,12,9,8,12,8,0,4,3,12,9,4,8,4,0,0,0,0,0,0,0,12,8,9,4,0,12,12,8,16,19,19,20,12,9,3,4,4,4,3,8,16,7,9,17,20,3,8,8,8,24,24,20,32,27,23,28,25,15,25,11,11,25,31,36,19,20,16,32,39,35,35,40,27,31,27,40,33,12,23,31,43,51,47,36,20,15,15,32,40,27,48,40,9,20,44,67,64,68,63,55,63,54,54,88,82,88,94,99,100,93,70,75,57,69,97,81,63,62,67,63,60,64,52,48,47,39,39,47,47,51,47,47,41,12,4,7,9,8,12,8,12,8,13,4,7,8,4,4,7,16,8,16,7,4,4,4,4,4,8,8,4,16,20,16,20,28,23,16,16,36,44,31,40,47,47,39,53,55,56,51,56,81,76,51,59,100,100,72,66,67,79,70,58,59,51,68,66,61,43,55,55,67,68,50,7,8,8,8,8,24,27,32,32,36,48,31,37,57,68,58,63,68,56,59,61,33,19,27,16,14,48,58,43,28,9,40,70,49,9,7,20,31,35,43,44,24,3,12,16,12,8,20,20,16,12,8,4,4,0,29,20,21,20,23,29,28,33,8,12,12,3,12,16,20,33,31,27,8,17,38,28,4,8,4,4,9,12,12,17,12,4,9,8,9,4,9,12,3,13,21,16,4,3,4,21,24,40,55,18,18,17,29,12,3,25,18,3,12,12,16,20,16,11,8,12,12,12,20,20,12,12,3,4,8,8,16,20,12,8,13,16,12,25,19,23,24,3,16,16,12,15,28,21,13,13,15,12,17,12,3,7,29,19,24,21,17,20,20,36,42,20,29,24,24,15,49,12,34,12,21,100,100,100,100,100,100,100,100,100,100,100,100,100,100,94,100,100,100,100,100,100,100,100,100,100,100,100,100,100,100,44,43,35,48,49,36,56,80,67,36,90,48,78,56,51,39,39,32,32,31,36,31,24,16,100,24,99,78,85,19,100,100,92,21,0,8,0,7,8,100,100,0
0,0,0,0,0,0,0,0,0,100,100,0,8,9,8,12,12,4,0,4,0,4,0,4,0,0,8,12,8,9,8,4,4,12,16,16,15,20,16,12,4,7,9,4,12,8,28,59,16,8,0,8,9,4,8,3,12,8,4,4,4,8,4,8,8,8,8,8,3,4,8,8,8,4,8,12,8,12,12,4,4,4,12,9,12,8,12,4,0,4,13,13,3,4,12,11,12,12,12,4,4,4,7,12,8,9,4,8,8,8,4,4,4,8,12,4,4,4,8,16,16,0,12,12,0,4,8,9,4,12,12,8,8,8,12,8,8,12,3,8,9,9,16,21,4,16,16,12,9,4,8,4,12,12,16,20,17,9,7,22,24,30,27,16,12,13,8,7,20,21,4,12,12,4,8,21,20,17,17,7,12,7,4,9,12,12,12,4,4,3,20,17,8,12,16,13,16,8,0,7,12,4,4,4,4,4,8,9,8,4,0,3,16,17,4,28,84,99,51,80,52,28,12,12,7,12,11,9,8,4,12,4,9,8,7,35,9,35,3,4,8,8,4,4,4,4,8,9,8,12,8,0,0,4,12,8,0,0,4,0,4,4,12,8,4,0,12,12,8,4,8,7,12,4,4,4,4,0,7,12,8,8,4,4,4,8,12,4,0,3,4,4,4,4,4,4,4,4,3,4,8,4,9,8,0,4,4,12,4,12,4,7,16,4,0,8,12,8,8,3,4,4,4,0,0,8,12,12,12,4,0,8,12,13,4,9,3,3,13,16,8,0,12,15,16,9,16,12,8,12,21,21,20,17,4,12,20,12,3,0,8,9,3,3,12,4,13,3,4,12,4,9,8,9,12,17,9,12,8,4,4,12,7,0,8,12,4,4,4,8,9,8,4,4,4,4,4,4,16,8,4,4,8,8,4,7,9,13,11,8,3,0,4,0,8,9,4,8,3,8,4,9,12,3,0,0,0,0,0,0,4,12,12,9,3,0,8,12,3,16,24,23,20,8,8,4,4,4,8,8,12,11,12,4,16,16,8,8,12,8,25,23,19,31,37,20,27,28,20,20,20,15,11,24,31,28,20,20,28,44,40,40,36,27,27,24,27,29,20,31,35,48,51,52,40,29,11,24,32,27,31,39,45,27,25,80,84,63,63,63,50,59,52,48,89,82,75,100,100,91,83,79,78,82,39,90,87,63,64,71,71,68,60,47,47,51,39,52,51,47,47,51,48,32,16,12,12,0,4,12,12,8,9,4,9,8,3,3,4,4,12,12,12,9,4,4,0,4,0,4,8,8,34,28,16,20,23,36,29,24,35,40,31,44,47,51,48,47,43,60,63,59,71,77,43,52,92,92,67,80,63,83,84,63,58,63,63,64,51,58,61,39,58,69,29,11,13,7,7,12,32,31,23,23,36,47,44,32,56,59,59,63,59,43,52,55,41,24,27,32,38,41,41,27,25,4,16,40,36,13,8,8,24,36,43,39,28,12,7,16,7,13,20,20,20,17,8,7,8,8,16,20,11,16,20,20,20,11,16,12,8,4,24,40,42,20,19,32,26,12,20,29,3,8,4,13,9,12,8,7,21,17,0,17,9,4,4,9,8,4,3,3,12,7,12,20,28,23,16,4,8,18,37,43,18,25,29,9,4,8,8,21,17,8,16,20,8,8,12,7,11,16,16,18,12,7,24,23,16,9,12,20,20,20,24,32,19,8,20,17,7,8,28,42,13,13,11,16,20,21,8,12,20,20,16,11,16,24,25,32,28,33,28,32,40,27,24,16,4,0,0,17,47,100,100,100,100,100,100,100,48,100,100,21,100,32,36,55,70,100,100,100,59,100,100,100,100,100,100,31,48,46,39,69,35,36,35,65,59,13,94,55,57,55,60,60,40,31,29,21,40,60,49,20,14,19,54,25,54,24,61,36,56,74,46,0,8,9,8,12,100,100,0
0,0,0,0,0,0,0,0,0,100,100,0,4,0,4,12,12,4,4,4,0,0,0,0,0,0,4,12,9,13,12,4,4,3,16,24,28,20,12,3,8,7,4,9,8,9,51,3,44,8,0,12,12,0,3,8,8,4,3,9,4,12,4,8,4,9,8,4,9,8,3,4,4,4,4,4,4,8,12,4,4,4,12,4,12,13,8,0,0,4,4,4,4,8,12,12,12,12,12,8,8,12,7,8,4,4,3,3,0,4,0,0,0,4,4,4,8,4,8,16,21,3,12,12,0,0,0,8,13,8,7,9,7,0,3,4,9,12,3,4,0,8,12,4,3,12,8,3,3,8,8,4,12,8,3,17,20,17,21,21,13,9,12,4,12,8,9,4,21,16,4,8,4,9,4,3,8,13,9,13,8,12,8,3,12,12,17,4,9,8,16,8,4,8,8,8,8,4,4,8,16,4,8,12,9,17,4,13,11,16,14,0,20,21,17,24,84,94,45,89,68,32,12,7,3,17,16,8,4,4,4,4,4,8,8,3,0,3,4,4,4,4,8,9,8,4,4,0,8,12,4,4,0,8,12,12,4,0,8,9,8,4,12,8,0,0,12,12,4,0,8,12,9,8,8,8,4,9,12,12,4,4,9,12,3,8,12,4,9,4,8,9,8,8,13,12,0,9,3,0,4,0,12,12,0,4,4,7,13,8,4,12,8,0,0,4,4,4,4,3,12,9,4,4,8,3,12,11,12,8,9,7,4,4,4,4,4,3,4,3,4,4,12,20,15,12,13,13,22,3,21,17,12,9,13,20,28,21,4,9,8,4,3,9,21,16,4,4,0,12,12,4,7,4,8,3,4,3,4,4,8,9,8,8,4,8,4,9,7,12,9,12,4,8,4,8,8,9,11,13,4,8,3,8,8,3,0,8,12,7,8,8,9,8,4,4,4,12,7,8,9,4,12,4,0,4,0,0,0,0,3,12,11,13,12,4,4,7,12,7,15,20,15,12,0,3,9,3,4,4,3,12,7,12,16,12,12,12,16,16,16,20,20,36,32,24,32,28,23,28,24,33,21,21,32,28,15,20,20,28,44,44,27,36,28,12,29,25,33,43,39,47,52,39,35,19,20,27,33,20,36,35,32,12,20,60,76,59,59,63,59,59,48,45,85,87,67,100,98,90,83,75,79,75,52,81,91,72,55,67,75,63,47,43,47,51,51,47,51,47,47,43,36,23,20,16,25,8,4,8,12,9,4,9,3,3,8,8,4,12,4,12,3,4,12,8,4,8,4,12,18,20,23,33,11,20,32,36,27,27,32,27,40,43,52,55,51,52,49,56,63,63,58,50,47,47,85,67,76,74,71,74,75,59,67,72,58,56,56,71,65,40,60,43,20,16,12,8,12,24,35,32,20,32,49,52,43,39,56,55,47,50,47,39,48,60,35,28,23,40,40,35,42,15,19,7,12,20,23,9,18,9,25,36,35,36,32,16,12,8,3,13,16,16,20,12,12,16,16,17,8,16,29,22,13,16,17,21,20,25,21,22,43,62,35,11,20,31,26,16,12,11,16,17,9,9,13,3,8,17,17,11,14,8,3,0,4,0,4,4,4,4,12,12,15,24,20,11,9,9,9,9,34,24,9,34,36,23,4,26,18,4,16,16,24,29,17,4,4,13,21,20,20,18,12,12,24,29,12,3,12,29,27,24,19,32,24,13,16,4,12,0,30,28,12,4,8,11,19,33,18,16,20,16,12,7,16,23,19,37,32,32,32,32,43,49,28,20,12,4,8,8,4,9,100,81,100,100,100,100,100,100,100,100,33,38,9,35,75,100,100,100,68,100,100,100,48,36,32,31,56,20,100,70,32,28,56,64,43,36,23,75,66,63,59,52,35,36,20,22,96,72,44,19,20,16,8,4,49,76,87,16,20,94,52,0,8,9,8,12,100,100,100
0,0,0,0,0,0,0,0,0,100,100,0,4,0,4,12,9,12,12,8,0,0,0,0,0,0,0,8,9,4,12,9,8,8,16,24,28,25,8,12,12,12,3,3,13,8,48,56,46,12,0,12,12,0,8,12,4,0,4,0,8,12,4,8,4,4,8,8,9,12,3,0,0,0,0,0,0,4,4,8,8,8,12,4,0,4,0,4,0,0,0,0,0,12,12,12,12,16,11,8,4,3,13,9,9,9,8,7,12,4,4,4,4,4,0,0,4,0,4,16,12,3,12,8,0,0,8,12,8,9,8,8,12,8,8,4,4,4,4,0,0,4,8,4,8,4,4,4,4,3,12,4,12,4,12,9,11,8,12,11,8,4,4,8,9,8,0,4,4,8,4,8,12,8,8,9,8,8,4,9,8,8,12,3,4,9,12,7,12,12,17,12,4,4,0,7,9,4,13,13,12,8,7,17,8,16,13,12,16,7,4,12,15,9,16,39,81,84,45,77,77,37,12,12,8,8,12,3,0,4,4,8,8,4,4,3,9,3,0,0,0,4,12,9,12,3,0,0,12,12,4,8,4,4,9,12,12,4,12,13,8,9,9,4,4,4,12,12,0,0,4,4,4,3,0,3,3,8,8,4,8,8,8,12,4,4,8,9,4,4,12,13,8,8,8,8,9,0,4,0,0,0,12,12,0,8,12,12,8,0,3,12,9,0,4,0,0,0,0,4,8,8,4,9,8,17,16,7,4,4,12,12,4,0,4,8,9,8,3,9,8,8,13,24,20,12,12,0,0,8,12,9,4,8,9,21,37,29,4,4,3,7,12,4,12,16,13,12,4,16,17,8,17,9,4,4,4,4,4,8,8,4,8,17,4,4,4,12,16,12,8,12,4,12,9,4,4,8,12,8,9,11,12,3,7,8,4,3,8,7,3,4,4,13,9,9,9,11,16,17,13,4,12,8,4,8,4,0,0,0,8,4,21,17,4,12,9,12,12,12,16,20,20,16,8,12,9,12,4,4,12,7,12,11,16,16,7,16,16,11,20,24,16,32,27,23,27,23,27,28,20,28,24,15,20,20,20,24,20,16,49,48,40,35,29,8,21,15,45,47,35,44,43,47,49,23,23,23,20,19,27,27,20,0,20,47,68,65,47,72,67,58,57,40,72,74,70,78,90,90,83,70,80,70,59,75,93,63,59,58,75,72,51,43,47,60,58,56,43,47,47,44,27,23,15,20,15,11,12,4,3,3,4,12,11,12,4,4,4,12,8,4,12,8,12,12,8,12,4,4,4,16,24,24,20,29,31,32,31,36,23,36,39,39,56,58,56,43,52,51,63,62,55,51,65,60,50,47,69,70,75,70,66,67,67,63,63,59,55,72,64,40,43,53,20,12,12,13,12,46,48,29,24,40,43,47,51,47,56,56,47,51,35,49,56,47,36,28,24,36,40,44,35,32,27,21,8,25,25,4,18,3,20,24,24,27,27,20,21,12,4,12,7,20,16,12,16,16,12,13,13,12,29,17,3,21,24,25,24,23,33,26,26,32,49,25,20,23,17,3,8,13,20,7,4,7,9,8,12,13,12,12,9,9,12,13,4,0,0,4,4,4,4,8,29,29,20,25,9,4,9,4,8,20,16,12,20,4,13,22,9,17,30,28,16,24,34,13,13,12,16,12,17,13,17,9,8,17,8,18,20,15,32,28,24,27,25,12,21,4,3,13,8,16,16,12,4,8,25,19,16,13,17,12,8,8,21,32,32,27,36,28,23,31,43,43,31,27,15,8,12,21,4,7,31,4,35,82,100,100,100,100,100,100,100,100,97,31,50,100,100,95,100,100,100,43,63,23,44,47,51,50,43,75,19,32,65,55,31,12,97,65,66,59,50,43,53,31,33,29,32,43,40,30,24,46,52,29,49,83,73,12,27,15,55,8,4,8,3,12,100,100,0
0,0,0,0,0,0,0,0,0,100,100,4,8,9,8,12,4,12,12,12,0,0,0,0,0,0,0,4,0,4,4,4,3,4,20,20,24,19,16,12,7,8,4,4,8,12,53,56,46,12,0,8,12,4,12,12,0,0,4,0,9,12,4,12,9,0,8,4,4,4,4,0,0,0,0,0,4,4,4,9,8,8,12,12,4,8,17,3,3,0,4,0,4,12,7,16,11,11,16,4,0,3,12,12,14,12,17,20,11,8,8,9,12,3,0,0,4,4,4,17,8,7,12,4,4,4,12,8,0,0,0,4,4,4,4,0,0,0,0,0,0,4,8,4,9,12,12,4,9,3,12,9,12,4,12,13,12,0,12,8,4,4,0,3,0,3,0,4,8,12,4,4,17,7,12,8,4,0,9,0,8,8,16,13,7,13,12,12,8,8,17,16,8,4,4,7,13,8,8,3,8,4,3,16,13,25,8,12,8,9,8,16,20,9,12,29,60,54,30,57,51,27,11,11,17,4,4,8,9,8,8,8,4,4,0,9,4,9,4,4,4,8,8,4,12,8,3,0,12,12,3,12,9,0,9,16,16,8,8,9,8,8,4,8,9,12,16,12,4,4,4,0,0,3,13,13,8,12,8,0,4,12,9,12,0,0,4,4,8,9,4,8,4,4,3,9,3,0,0,0,0,0,12,12,4,8,8,9,12,3,8,12,4,9,8,4,0,0,4,0,3,8,8,8,8,7,17,4,4,4,8,12,8,9,4,8,12,7,4,4,8,12,9,15,16,12,7,4,8,8,4,0,7,16,13,8,20,16,9,8,12,11,12,8,17,12,12,8,13,16,12,12,12,12,8,0,3,9,3,4,4,4,12,8,4,8,12,12,16,17,13,7,0,7,12,4,0,4,4,7,14,16,8,8,12,3,8,8,4,7,12,4,3,9,17,3,8,12,16,7,4,4,4,4,4,8,8,4,0,0,3,9,12,12,12,12,8,8,13,16,16,16,16,20,17,13,4,12,8,8,7,12,7,12,16,16,7,12,11,16,20,23,28,20,23,32,28,24,32,28,20,28,27,28,20,20,24,19,20,7,37,43,47,53,20,3,8,15,43,56,36,45,47,52,43,27,28,20,29,27,24,19,16,8,16,36,64,55,51,54,58,67,65,35,59,70,70,79,82,92,82,92,80,76,63,71,70,71,62,59,80,66,47,43,56,63,59,52,43,47,43,31,36,28,16,15,20,15,7,4,22,12,4,12,11,12,4,0,8,12,4,0,8,12,12,12,12,12,8,12,8,12,11,20,24,28,32,19,45,40,32,53,43,48,64,58,52,43,47,51,63,67,55,50,63,69,44,35,56,67,84,75,76,84,71,55,68,67,59,55,50,40,49,35,16,4,4,8,16,41,36,24,45,43,43,52,56,52,47,50,56,56,53,40,47,40,20,24,32,36,40,52,43,35,31,16,21,11,3,4,3,24,33,11,20,33,27,20,16,7,17,12,17,20,17,12,16,9,8,4,8,14,29,20,9,22,40,40,29,28,23,7,8,24,31,32,24,20,17,4,17,4,20,16,8,16,14,7,3,8,17,12,8,0,8,12,8,0,3,8,8,4,4,8,16,20,23,25,4,12,12,4,8,11,17,8,12,4,9,9,8,8,17,20,3,38,23,30,12,29,32,8,16,29,25,4,22,17,26,4,12,16,28,28,15,23,25,13,13,18,4,3,8,7,11,21,13,9,13,25,38,11,9,8,9,11,16,23,27,27,35,41,28,35,39,43,43,49,32,21,12,16,13,25,12,0,0,12,18,85,100,100,100,100,100,100,100,100,100,100,100,100,100,100,100,50,52,40,34,45,89,72,36,23,36,44,43,43,36,33,57,76,47,60,47,43,77,46,18,41,25,33,32,17,94,48,82,100,75,39,45,11,16,21,25,8,4,16,17,100,100,100,100
0,0,0,0,0,0,0,0,0,100,100,100,12,12,9,12,4,8,9,8,0,0,0,0,0,0,0,0,0,0,0,0,8,9,20,16,20,27,23,16,12,8,0,4,3,8,25,4,22,8,4,8,17,8,12,8,0,4,3,4,4,8,12,12,8,9,8,0,0,0,0,0,0,0,4,0,7,12,12,4,9,3,16,25,13,11,16,13,7,9,4,4,8,8,8,16,21,12,16,4,0,16,16,8,4,3,16,24,20,4,4,8,12,3,0,3,8,8,4,7,9,11,9,8,8,9,8,4,8,9,8,0,0,0,0,0,0,4,4,4,4,8,9,8,8,8,12,12,0,3,12,8,12,8,8,9,8,8,12,4,4,8,9,8,0,3,9,4,12,12,9,3,12,12,4,8,4,8,8,9,8,3,16,9,8,8,21,13,4,12,7,20,17,8,8,12,12,4,17,8,4,3,13,21,9,21,9,17,3,4,0,8,12,3,0,16,31,40,21,32,41,24,16,12,8,0,0,12,9,9,8,4,0,8,9,4,8,4,4,4,4,4,4,4,8,17,12,9,4,12,3,12,8,0,8,12,12,12,4,4,4,8,12,4,9,7,12,12,13,9,3,4,0,4,4,4,4,12,12,0,0,12,9,12,0,0,0,0,4,4,12,8,4,0,3,0,4,0,0,0,0,0,12,8,12,9,9,4,12,4,8,8,12,13,12,3,0,0,3,9,3,4,0,4,0,12,8,12,13,8,8,12,8,12,0,8,12,7,9,8,8,12,4,16,16,7,8,8,4,4,8,13,16,16,12,0,9,13,21,7,12,7,8,17,8,17,11,8,3,12,8,12,15,16,12,4,4,4,4,4,0,0,4,4,12,11,12,3,4,8,9,12,4,12,11,13,4,9,4,8,13,8,4,17,7,12,8,0,4,16,11,9,7,0,7,12,3,8,11,16,4,0,0,0,0,4,8,8,4,4,4,0,12,12,8,12,12,12,4,12,16,11,16,12,9,9,3,4,8,16,12,12,8,12,16,16,12,3,12,16,15,36,41,20,23,28,27,28,27,27,28,23,20,32,23,20,20,24,24,16,16,32,56,52,25,3,12,34,53,47,35,40,43,39,44,32,19,20,41,36,12,12,8,8,12,37,51,60,56,55,54,62,64,43,56,63,66,74,79,80,96,95,74,70,67,59,81,78,76,59,71,81,57,47,58,68,56,43,47,47,43,31,31,38,16,19,23,20,7,12,7,16,7,12,8,8,3,4,12,12,0,0,4,12,11,12,12,7,16,16,12,20,16,20,27,32,28,20,37,35,40,52,48,51,63,60,47,56,52,47,59,58,54,68,71,57,27,44,60,76,80,67,58,70,76,59,58,63,64,52,51,52,36,33,9,4,12,11,16,20,23,32,43,49,44,56,51,43,56,55,47,65,56,39,48,32,16,20,31,31,44,51,53,43,52,33,20,21,13,12,12,29,25,24,37,15,20,16,16,8,17,22,17,20,16,17,11,12,38,13,12,18,20,24,16,17,53,51,28,24,29,4,8,20,19,36,37,16,7,4,8,14,20,11,9,11,9,8,3,13,4,3,4,4,12,16,16,8,12,25,12,3,0,3,12,25,24,12,8,7,7,9,4,8,3,9,16,16,9,8,4,8,4,4,13,37,36,20,16,25,36,35,46,45,30,17,13,34,32,23,12,27,28,24,12,12,12,13,4,17,12,9,12,7,4,9,12,12,4,12,19,21,4,12,14,16,16,28,28,24,45,32,36,40,40,48,51,61,45,33,21,12,9,7,4,4,4,12,9,12,12,31,98,100,100,100,100,100,100,100,100,100,100,100,20,36,51,56,9,100,100,85,25,16,51,83,40,36,31,53,56,44,70,50,39,43,79,100,29,32,24,19,33,27,24,47,83,76,73,41,16,15,15,16,12,4,12,12,17,100,100,100,0
0,0,0,0,0,0,0,0,0,100,100,100,12,12,9,12,4,4,0,4,0,0,0,0,0,0,0,0,0,0,0,0,8,9,11,12,24,27,28,20,12,8,4,8,3,13,4,8,12,4,8,12,7,17,4,4,4,8,4,4,3,4,8,12,12,9,12,0,0,0,0,0,0,0,3,9,12,12,12,9,0,8,20,25,17,15,8,4,8,8,4,4,3,4,9,16,8,12,12,12,8,16,25,8,3,13,26,37,24,4,0,12,12,3,9,16,12,4,8,8,12,12,0,4,0,8,9,4,12,12,12,0,0,0,4,4,4,4,12,13,4,12,9,4,8,8,12,12,0,8,12,4,12,8,4,4,4,8,9,13,3,12,9,12,0,4,4,8,8,3,0,4,12,12,0,4,0,7,12,4,8,9,11,9,8,12,8,8,9,8,12,15,12,0,7,9,7,0,11,21,4,4,0,4,8,13,8,7,12,12,8,0,4,8,8,8,25,23,8,20,20,12,11,12,4,0,4,12,8,0,4,4,0,8,12,4,4,0,0,0,0,0,0,0,3,16,21,13,8,8,8,7,12,4,12,8,8,16,13,4,4,8,11,13,8,8,8,3,4,4,9,3,0,0,0,0,0,8,12,4,4,8,9,8,0,0,0,0,0,0,8,12,8,9,3,0,0,0,4,0,4,0,12,13,12,4,9,9,12,8,12,4,12,9,12,3,0,4,8,0,8,0,8,9,8,12,8,8,9,8,3,12,9,12,4,12,12,8,9,8,8,12,8,12,12,12,4,4,4,8,12,21,21,7,16,7,12,4,12,8,0,4,8,8,3,12,16,15,12,4,4,17,24,20,7,8,4,8,4,8,9,4,4,4,17,16,8,4,8,9,9,9,13,8,12,8,9,4,7,13,8,8,8,12,12,8,9,9,12,12,12,8,13,12,8,8,8,3,16,16,8,4,4,4,4,0,4,4,8,8,4,4,12,12,4,8,13,11,8,3,12,12,12,8,4,0,3,4,8,20,21,9,8,12,16,12,4,8,12,16,24,36,31,27,23,24,45,31,32,27,27,33,16,36,36,15,15,15,20,15,7,21,53,47,25,8,20,32,35,47,47,40,31,35,35,27,23,27,40,41,13,4,9,8,11,36,43,52,52,51,55,67,67,51,47,54,72,78,89,72,79,86,82,80,74,81,68,88,75,72,63,59,51,68,67,50,55,51,43,47,47,41,27,23,33,27,23,16,17,16,7,16,16,11,13,8,4,8,12,12,4,0,4,8,8,4,8,12,16,20,16,16,16,16,27,31,27,20,37,35,40,47,47,60,62,60,47,51,47,56,68,63,54,67,81,49,41,47,55,71,89,69,55,67,67,67,68,51,51,51,51,48,27,12,8,18,17,29,25,16,23,40,47,39,44,51,56,43,51,51,48,51,61,52,54,33,25,23,40,39,40,43,35,61,60,45,25,9,9,21,16,16,11,38,40,38,20,16,16,4,8,9,21,15,16,16,29,27,32,22,21,32,26,49,42,16,50,51,37,20,20,3,0,8,12,54,44,16,7,4,3,4,12,12,4,12,4,9,4,8,12,18,8,4,12,19,32,28,12,28,20,20,9,3,3,11,11,8,12,7,12,4,13,13,8,4,17,11,8,12,8,8,9,7,8,27,37,29,30,12,24,21,37,36,9,16,3,21,29,12,30,39,54,40,35,16,16,34,18,17,13,9,3,7,9,18,30,25,13,12,20,16,8,4,4,4,25,32,24,20,31,31,40,36,27,40,56,50,48,40,33,17,9,4,8,4,4,0,8,13,12,8,4,3,65,100,100,100,100,100,100,89,100,100,23,44,56,51,42,45,94,75,33,34,100,59,36,32,49,47,51,52,51,52,31,38,100,98,23,30,28,45,15,16,15,12,42,28,36,50,25,28,15,12,39,4,35,29,21,100,100,100,0
0,0,0,0,0,0,0,0,100,100,100,100,8,12,8,4,12,8,0,0,0,0,0,0,0,0,0,0,4,0,4,0,4,0,3,12,24,49,24,22,15,12,8,8,8,12,13,9,12,4,12,8,12,12,0,0,3,12,9,0,4,0,4,8,9,4,12,4,4,4,0,0,0,0,8,0,8,4,4,4,13,8,21,11,16,20,8,12,4,4,4,0,8,9,4,12,4,8,12,21,12,16,16,8,4,4,12,20,16,8,4,12,12,4,4,20,21,4,4,4,12,12,0,0,8,12,12,9,12,8,12,4,4,4,3,13,13,4,8,9,8,0,4,4,8,8,8,8,4,7,9,8,4,8,9,8,8,12,4,4,4,8,9,8,0,4,8,8,3,0,4,0,12,12,0,4,0,12,12,4,3,4,12,12,4,4,4,8,0,8,12,15,16,12,17,8,7,4,7,12,18,12,8,4,12,9,8,8,4,12,12,0,4,4,7,8,3,16,8,12,12,0,12,12,0,4,8,12,4,0,0,8,9,8,12,8,0,4,0,4,0,0,0,0,4,12,7,0,4,4,8,7,4,4,4,0,9,16,3,8,12,4,12,12,4,4,4,0,0,4,0,4,0,0,4,0,4,4,4,12,8,8,4,9,4,4,4,0,4,0,8,12,8,4,4,4,0,0,3,13,3,4,8,9,8,9,0,9,12,12,12,0,8,9,8,8,9,8,8,9,8,4,12,8,0,4,4,3,4,4,4,8,9,9,13,8,12,4,0,4,12,12,12,12,12,8,0,0,8,12,4,12,8,13,16,16,12,0,0,0,3,9,8,4,12,12,16,24,21,4,4,8,20,20,12,8,13,12,3,8,8,0,4,4,8,16,9,12,4,4,0,0,8,9,9,8,3,9,21,13,4,12,12,9,12,4,0,4,12,8,3,4,4,12,9,3,3,12,16,16,13,8,4,8,8,4,4,0,4,8,12,4,12,7,4,4,7,16,7,12,4,4,4,8,4,8,8,8,12,16,12,4,12,11,12,4,4,21,24,20,20,20,36,35,27,23,35,45,27,28,27,24,25,49,40,16,20,12,21,23,16,12,28,31,25,12,28,31,35,47,47,45,28,40,39,32,32,44,40,33,12,13,9,25,20,32,39,43,48,43,56,94,84,47,56,59,59,67,75,67,79,82,78,70,79,84,63,67,78,85,59,60,59,74,72,51,54,56,48,47,48,31,32,32,27,27,19,21,11,20,12,20,20,12,9,11,3,12,13,8,8,9,4,9,8,12,7,4,12,20,24,11,16,16,37,31,27,23,27,36,44,47,51,59,58,59,50,47,56,59,63,60,60,72,50,43,43,43,51,63,67,59,55,63,68,67,69,39,48,64,55,40,29,17,9,9,26,33,24,24,27,48,47,39,44,47,47,48,56,52,40,43,47,44,41,32,41,49,43,43,49,41,39,47,47,31,20,4,0,16,12,17,11,20,28,28,23,38,21,9,13,13,18,25,20,16,19,12,16,12,18,9,22,17,29,21,28,43,36,12,16,21,8,18,35,58,48,24,8,9,17,3,8,12,9,12,14,8,9,4,8,4,4,8,20,27,43,58,27,36,40,32,3,4,3,16,17,4,8,7,16,4,4,9,4,12,9,3,8,3,12,9,4,12,12,24,20,25,25,8,12,12,8,16,18,24,16,4,12,16,16,41,45,27,24,29,30,32,22,8,7,36,30,8,35,12,32,34,9,9,21,16,8,8,8,9,16,29,17,33,36,31,37,27,31,40,56,47,48,43,32,11,12,12,11,8,8,12,4,8,8,4,4,13,12,9,25,53,100,42,100,54,96,100,27,39,64,61,43,51,39,49,52,53,40,92,32,31,52,55,47,56,60,41,63,34,96,90,24,4,80,47,16,16,15,40,52,21,91,47,24,33,12,4,43,83,43,27,53,41,100,100,100
0,0,0,0,0,0,0,0,100,100,100,12,4,12,9,4,12,8,0,0,0,0,0,0,0,0,0,0,8,9,8,0,0,0,4,8,49,51,55,8,19,16,12,8,8,12,12,9,12,8,8,3,12,8,0,0,4,12,8,4,0,4,0,4,0,4,0,4,12,8,0,0,0,4,3,9,3,0,0,4,8,16,7,9,11,17,12,8,4,0,4,4,12,4,9,8,4,8,8,8,12,16,12,4,0,8,12,8,3,8,8,12,12,4,8,16,16,4,0,3,12,8,0,4,12,12,8,9,8,4,4,4,12,8,8,4,8,4,4,0,3,8,4,8,3,3,8,8,12,7,0,4,4,12,8,12,4,12,4,0,0,4,0,4,4,8,8,4,3,9,3,0,12,12,0,8,9,16,16,13,12,3,12,12,0,0,0,8,9,7,12,16,15,12,8,9,7,4,3,13,12,0,8,9,17,8,4,4,0,8,12,4,8,9,7,4,4,17,7,7,17,12,8,9,9,8,8,12,4,4,0,12,12,12,9,12,0,3,9,3,0,0,0,4,0,9,12,3,0,0,4,12,4,12,9,8,4,8,4,8,12,4,8,12,4,0,0,0,0,0,0,0,0,0,3,9,4,4,4,12,12,3,13,9,9,13,8,0,3,9,12,12,4,8,9,8,0,4,0,8,9,8,4,0,4,3,9,4,8,9,8,0,4,0,4,8,9,8,12,12,4,4,3,7,8,4,4,12,8,0,0,4,4,4,4,12,12,4,0,4,12,12,12,12,12,8,0,0,8,12,4,4,0,4,16,11,8,4,8,12,4,4,4,9,17,12,7,16,7,8,9,9,15,15,8,9,4,8,4,8,12,9,4,13,13,13,4,12,4,4,0,0,4,0,4,8,4,8,8,4,17,11,11,13,8,0,0,8,4,9,8,4,4,4,4,12,8,12,16,12,4,9,4,4,4,8,12,4,4,3,8,9,12,7,12,12,11,12,12,12,4,4,4,3,4,0,3,4,4,12,12,12,11,12,4,4,12,28,35,25,4,12,36,43,36,28,32,39,36,24,28,28,32,43,49,25,20,17,13,28,20,12,11,25,16,16,28,36,43,43,43,39,31,36,40,28,37,39,27,15,16,12,0,20,24,32,39,35,43,43,47,80,85,47,55,59,60,56,76,80,96,87,67,66,71,75,80,63,93,79,67,59,76,82,76,60,59,43,49,52,39,31,40,35,35,32,16,12,20,28,25,20,21,8,18,20,21,30,12,4,8,9,12,16,16,15,20,13,3,20,23,16,20,24,23,32,23,27,32,40,52,47,51,51,55,59,54,60,56,63,60,47,63,73,43,51,56,39,56,56,69,59,55,59,60,68,59,43,39,60,69,36,11,16,3,3,16,24,27,32,31,47,52,35,40,56,47,40,48,43,35,53,52,40,31,31,31,52,53,35,32,36,60,60,31,27,15,8,0,8,12,7,12,12,16,20,28,24,12,4,8,26,18,21,20,16,20,12,4,4,4,4,13,4,12,16,23,27,32,21,17,16,17,12,29,32,31,29,9,8,7,4,4,9,8,4,4,8,13,17,8,4,9,21,15,45,68,58,18,41,47,40,16,12,8,20,17,3,9,21,20,3,9,4,4,8,4,4,11,13,20,9,4,4,9,21,8,18,21,13,21,16,17,9,12,32,20,4,21,24,12,16,16,14,16,16,9,21,26,0,18,16,12,27,25,29,40,48,12,22,25,21,26,12,7,23,25,37,12,15,23,27,15,46,43,36,39,44,44,48,27,19,20,20,24,25,11,16,9,12,12,4,9,21,16,3,16,16,48,12,83,25,44,40,31,45,69,56,56,100,41,51,86,22,98,59,36,36,56,68,49,43,60,50,55,100,16,43,23,47,24,36,12,8,16,46,100,100,68,57,20,40,0,25,46,22,25,78,36,82,100,100,100
