0,0,100,100,100,4,17,20,18,27,59,58,71,73,66,55,66,62,19,21,26,29,37,50,75,84,87,77,55,42,40,76,100,100,75,96,82,66,41,8,0,0,0,0,0,5,8,8,3,10,13,8,12,12,3,5,12,12,0,0,0,0,0,5,3,5,10,13,12,12,12,12,3,8,13,10,8,10,18,9,10,3,12,13,3,5,8,13,13,12,8,13,13,8,5,13,16,13,3,5,9,5,13,8,23,30,69,10,100,100,35,68,20,44,37,72,66,12,13,15,9,20,28,40,52,48,38,30,44,61,36,48,48,32,28,20,8,13,20,17,22,33,17,13,10,5,5,3,13,12,0,3,13,10,13,36,41,18,16,16,11,17,29,32,8,13,13,5,8,12,12,12,8,5,5,3,5,3,5,0,20,15,20,0,3,13,13,12,13,8,20,15,20,8,15,17,15,5,0,0,8,15,8,18,8,8,34,32,58,78,49,100,100,24,88,84,44,21,8,5,5,21,16,0,16,21,8,8,23,21,21,12,10,17,22,22,14,12,14,21,27,19,7,18,13,20,46,55,69,87,61,43,26,25,23,15,16,15,16,14,13,10,5,0,12,12,13,18,17,17,8,12,13,13,16,32,27,34,60,62,67,68,64,42,28,49,57,48,47,47,47,54,35,43,41,32,24,28,24,12,0,0,0,12,12,8,12,15,7,7,12,5,12,8,8,15,14,15,5,12,9,15,13,13,13,13,24,40,41,49,36,22,29,27,21,17,25,16,37,48,44,38,58,59,69,64,38,29,41,35,40,32,24,30,40,40,38,36,43,27,19,12,8,38,36,12,17,16,16,9,20,53,45,0,0,0,0,21,32,67,62,36,68,65,44,47,5,13,9,5,21,51,61,68,61,53,57,57,40,20,3,0,12,44,65,36,41,47,30,46,38,27,26,17,8,12,23,23,19,27,32,21,19,26,19,18,26,12,19,21,20,5,12,16,21,19,18,14,17,28,24,21,30,13,23,50,68,82,55,43,52,50,59,65,84,76,68,65,64,57,48,36,38,24,27,39,37,38,33,36,30,5,13,25,26,26,17,10,0,0,0,0,0,0,0,0,0,0,12,12,26,17,7,10,7,26,19,13,19,3,8,24,26,10,10,21,24,25,8,5,12,23,31,53,54,44,45,41,42,42,37,32,23,20,25,29,40,49,37,42,38,59,46,54,47,38,44,49,29,24,30,19,24,39,43,37,24,24,37,48,40,44,32,24,31,32,32,29,33,37,31,27,39,29,25,20,20,14,13,8,13,26,20,25,21,24,29,26,32,28,46,40,33,30,24,24,45,45,36,38,40,36,29,29,35,35,41,46,36,28,24,29,31,43,41,30,25,19,24,21,22,36,31,22,16,22,24,19,16,29,29,20,25,24,16,20,25,19,17,13,8,9,25,20,13,12,19,21,16,29,24,15,8,18,10,0,10,7,23,24,12,37,37,43,57,47,47,56,48,51,72,84,72,64,59,54,25,10,25,59,66,100,100,100,100,100,100,100,100,100,100,100,100,100,100,100,100,100,100,96,25,17,54,83,37,87,100,100,100,79,100,100,100,100,80,80,56,36,22,36,71,73,76,70,50,90,86,100,100,40,54,38,29,13,13,3,0,10,21,24,25,26,28,100,100,100,100,50,38,54,31,60,28,81,23,54,64,53,38,20,21,20,43,79,50,100,100,100,100,100,100,100,100,100,100,0,0,0,0,0,0,0,0,0,0,0,0,0,0,0,0,0,0,0,0,0,0,0,0,0,0,0,0,0,0,0,0,0,0,0,0,0,0,0,0,0,0,0,0,0,0,0,0,0,0,0,0,0,0,0,0,0,0,0,0,0,0,0,0,0,0,0,0,0,0,0,0,0,0,0,0,0,0,0,0,0,0,0,0,0,0,0,0,0,0,0,0,0,0,0,0,0,0
0,0,100,100,100,23,27,34,16,24,33,50,82,81,73,78,66,46,27,16,20,32,32,65,77,63,53,62,54,40,37,59,75,87,100,100,74,70,21,5,0,0,0,0,0,3,13,13,12,13,13,12,12,16,9,3,8,13,8,3,5,0,0,0,0,3,12,8,0,5,10,12,13,15,10,10,12,18,10,17,21,8,13,8,0,0,12,12,12,12,5,13,16,12,10,10,12,12,5,8,8,8,8,11,24,68,54,94,64,64,83,76,56,32,49,68,54,17,25,18,10,25,36,44,48,48,41,28,49,47,35,35,35,36,33,12,12,20,22,20,20,25,5,5,10,13,8,5,12,13,3,4,8,15,9,28,42,25,16,11,16,12,30,24,10,8,8,5,3,8,3,5,0,0,8,13,7,3,5,30,69,63,98,96,68,50,16,18,9,12,48,65,52,31,32,23,29,20,5,0,8,15,8,8,15,8,20,39,74,13,84,100,100,17,73,94,39,30,15,10,15,16,15,9,25,20,17,23,23,11,23,18,4,13,11,17,20,20,18,8,16,20,15,12,8,13,12,30,51,35,16,9,5,21,29,14,16,17,20,17,15,5,8,8,13,12,16,25,9,13,8,8,13,11,18,33,33,12,55,61,64,72,63,54,41,40,48,53,51,52,45,43,49,39,40,37,24,24,20,12,0,5,8,15,12,15,12,8,5,3,9,12,12,3,5,8,20,17,8,8,13,8,5,8,8,8,24,34,33,48,28,17,42,49,24,13,21,34,48,47,42,45,58,65,54,62,39,27,39,34,38,33,39,39,43,44,44,32,26,27,16,15,22,34,24,12,16,25,11,9,16,53,54,0,5,13,25,35,29,81,68,85,57,60,25,71,30,25,13,14,17,28,59,70,71,67,71,67,63,51,34,18,23,54,65,38,40,30,39,24,11,27,29,17,12,21,25,36,39,31,21,12,21,23,18,12,8,10,13,20,22,13,13,17,31,20,5,17,24,31,20,25,29,35,38,58,69,63,36,40,58,54,61,67,71,78,49,49,55,57,50,36,31,33,27,27,31,40,32,27,20,9,12,3,17,10,29,17,0,0,0,0,0,0,0,0,0,5,13,20,26,17,26,17,10,17,30,17,3,4,10,23,30,17,17,26,12,13,5,5,21,30,35,36,36,44,39,44,45,42,31,38,16,24,24,33,51,46,43,40,41,47,61,48,55,40,38,27,22,27,42,41,37,44,42,37,36,41,36,45,42,42,44,40,33,33,29,28,36,40,35,27,32,37,36,32,29,32,28,21,26,20,24,12,16,19,16,28,21,20,29,29,30,43,46,37,30,30,30,38,45,43,39,34,42,48,35,30,29,32,29,30,32,39,38,33,35,36,22,31,28,32,44,47,25,19,24,31,20,30,21,16,18,16,21,5,5,15,17,7,5,3,15,24,13,8,21,20,17,17,22,17,5,18,21,25,26,25,26,17,12,36,27,41,55,56,40,53,51,64,76,85,78,57,47,44,27,12,43,25,100,100,100,100,100,100,100,100,100,100,100,100,100,100,100,100,100,100,100,38,54,31,54,73,13,84,100,52,100,100,74,100,100,59,46,36,100,41,23,35,52,72,75,74,75,75,74,100,100,89,52,39,31,20,12,8,0,0,0,15,25,19,17,38,21,68,100,44,25,26,35,35,66,27,71,54,32,25,56,71,55,26,40,100,82,29,55,100,80,100,100,100,100,100,100,100,0,0,0,0,0,0,0,0,0,0,0,0,0,0,0,0,0,0,0,0,0,0,0,0,0,0,0,0,0,0,0,0,0,0,0,0,0,0,0,0,0,0,0,0,0,0,0,0,0,0,0,0,0,0,0,0,0,0,0,0,0,0,0,0,0,0,0,0,0,0,0,0,0,0,0,0,0,0,0,0,0,0,0,0,0,0,0,0,0,0,0,0,0,0,0,0,0
100,100,100,100,100,24,29,30,32,29,32,43,73,75,63,75,65,33,33,20,8,15,15,53,64,57,44,52,64,56,45,63,79,72,100,100,68,44,8,0,0,0,5,8,8,5,8,8,12,12,8,15,10,10,12,3,5,13,8,13,8,0,0,0,0,5,13,8,0,8,13,9,5,10,5,5,3,13,12,13,18,13,11,8,5,0,8,13,13,12,0,12,15,16,13,10,12,12,3,9,3,5,10,10,38,33,47,43,100,43,68,93,54,45,38,65,49,32,40,36,24,22,40,52,57,36,37,36,43,52,36,31,35,35,23,20,22,26,10,8,19,26,18,13,10,9,13,3,8,10,9,3,0,8,13,17,29,22,14,12,12,21,29,24,8,12,12,8,9,0,9,3,0,0,8,17,14,36,39,39,69,79,88,68,100,68,25,10,13,27,52,53,46,59,59,42,40,26,10,8,13,4,13,8,12,8,23,29,55,79,53,58,100,27,78,75,48,25,8,13,13,17,17,12,18,20,15,28,18,9,12,12,13,3,3,15,17,16,20,13,22,24,20,15,15,10,12,18,8,8,17,8,8,21,27,26,8,15,17,16,8,3,20,14,8,13,15,22,10,12,8,10,5,12,17,19,24,8,47,59,59,65,60,53,46,33,44,58,54,60,46,48,55,57,36,37,24,20,15,12,5,10,13,8,12,13,8,8,5,5,8,11,10,5,0,5,18,17,8,5,3,4,3,5,5,18,24,23,40,36,12,21,48,55,36,36,21,39,48,43,43,44,59,57,60,54,44,34,41,38,53,51,43,58,49,39,35,17,14,34,25,30,38,17,12,13,17,16,12,13,12,54,57,20,21,19,30,23,51,37,62,100,100,100,100,100,100,61,28,22,40,38,40,49,68,75,79,79,86,82,48,69,50,55,51,44,49,46,29,31,23,26,32,38,28,29,55,45,45,27,16,13,11,23,24,16,11,11,10,12,17,15,5,5,17,16,8,5,21,21,29,20,35,44,44,43,45,49,56,53,65,72,70,66,55,48,57,58,52,52,37,28,28,37,33,21,39,40,36,30,13,0,12,8,17,26,9,30,17,10,0,0,0,0,5,8,8,10,13,24,26,26,19,25,10,17,30,17,3,10,13,13,20,30,30,17,8,12,8,15,21,31,42,31,44,46,46,40,44,37,22,25,30,23,37,43,43,52,40,50,55,58,51,45,45,38,35,27,33,49,47,47,39,39,49,51,46,36,26,29,31,33,36,36,32,33,42,44,36,33,31,32,31,38,36,40,37,46,31,36,37,32,32,27,21,11,13,8,0,17,24,27,31,41,40,47,41,40,32,34,43,46,38,29,49,49,44,45,47,34,26,28,27,40,38,43,44,51,35,39,24,24,45,39,35,24,21,24,17,18,19,25,20,17,10,13,5,5,8,15,10,8,19,24,14,12,17,21,17,13,22,25,18,0,13,21,18,17,8,8,16,37,38,29,47,54,37,52,58,68,74,93,72,64,39,40,32,12,28,81,72,100,100,100,100,100,100,100,100,100,100,100,100,100,100,100,100,100,100,33,32,65,30,41,46,100,95,78,47,53,100,100,100,49,93,69,100,74,33,44,28,51,70,69,75,89,44,59,49,47,45,43,43,32,14,10,13,20,17,13,39,51,64,21,27,78,58,47,15,13,34,65,74,61,75,22,45,25,33,66,36,8,75,47,44,16,100,100,60,100,52,100,100,100,100,100,100,100,0,0,0,0,0,0,0,0,0,0,0,0,0,0,0,0,0,0,0,0,0,0,0,0,0,0,0,0,0,0,0,0,0,0,0,0,0,0,0,0,0,0,0,0,0,0,0,0,0,0,0,0,0,0,0,0,0,0,0,0,0,0,0,0,0,0,0,0,0,0,0,0,0,0,0,0,0,0,0,0,0,0,0,0,0,0,0,0,0,0,0,0,0,0,0
100,100,100,100,12,16,24,39,24,57,64,52,45,64,67,75,84,20,33,35,18,13,12,49,55,34,40,57,61,57,62,61,58,57,100,100,100,51,5,5,3,5,8,14,13,5,3,8,13,8,5,8,10,9,13,3,0,12,9,9,13,8,8,8,8,8,15,8,0,12,13,10,13,8,0,0,0,8,13,5,7,12,13,13,8,5,8,11,13,8,10,20,18,7,10,13,16,12,5,3,4,10,10,5,0,12,16,87,56,56,62,55,53,37,22,38,50,48,44,42,31,37,41,58,51,38,48,36,57,43,27,40,43,41,28,30,17,17,0,5,18,21,25,3,13,13,8,5,5,5,8,8,0,5,5,8,13,21,27,29,24,30,26,16,17,15,16,10,8,8,3,5,0,0,5,20,27,36,83,57,87,100,65,99,60,100,58,38,13,28,57,13,50,68,72,51,44,32,13,13,12,15,8,17,20,8,7,39,40,61,56,97,99,85,93,80,54,17,4,3,5,17,24,20,25,21,13,18,12,13,13,13,8,0,0,3,12,7,8,13,20,24,22,8,8,11,13,12,7,5,13,8,12,13,23,19,8,7,12,13,25,23,25,17,13,8,18,29,17,17,18,17,16,21,26,21,32,23,34,54,67,70,70,58,45,33,51,47,68,52,48,47,51,61,44,41,29,20,17,18,8,13,10,5,8,13,13,13,8,8,13,10,5,0,0,8,17,17,8,0,0,3,9,3,8,17,17,28,35,37,16,40,54,56,51,35,23,45,50,37,37,51,74,70,60,51,38,34,42,46,57,64,49,40,65,39,13,10,21,22,26,34,21,5,13,5,13,15,23,17,10,32,31,25,4,24,14,37,17,23,100,100,100,100,100,100,100,100,43,43,56,64,40,36,56,69,77,78,82,100,100,50,35,15,25,37,31,36,29,22,29,30,38,44,35,37,28,36,27,16,19,24,27,34,32,16,13,11,8,18,17,25,15,21,18,11,12,12,12,18,26,33,36,36,35,35,49,51,62,68,58,70,72,63,47,53,70,59,45,45,38,29,19,25,37,36,38,36,40,35,8,9,13,3,25,19,26,19,26,7,0,0,0,0,8,15,15,4,13,24,17,25,26,25,17,29,10,21,9,8,9,13,8,19,19,12,23,17,21,26,25,34,38,33,40,43,46,36,32,24,22,29,31,31,37,47,43,38,45,56,55,54,48,40,35,31,23,33,43,47,35,47,52,53,53,47,37,28,28,24,29,27,24,24,28,40,52,52,38,39,27,37,35,40,40,40,46,38,33,34,45,36,34,37,32,29,32,29,17,13,19,30,31,37,31,30,37,38,35,29,34,30,32,35,29,41,41,53,45,28,24,24,24,27,37,33,48,45,48,41,33,28,31,38,31,32,27,21,19,13,17,20,25,19,16,13,8,0,0,12,9,13,13,26,19,12,13,26,19,13,17,19,21,18,4,14,8,0,3,9,29,32,32,28,37,48,43,61,72,59,81,77,81,76,48,31,28,12,55,24,100,100,100,100,100,100,100,100,100,100,100,100,100,100,100,100,100,100,28,35,47,62,82,63,33,100,100,100,92,100,100,100,100,100,91,31,24,68,100,12,16,31,75,78,65,82,100,44,63,72,55,68,63,59,24,8,17,22,26,13,36,27,16,62,24,20,25,35,20,13,49,49,57,32,32,46,61,79,28,31,8,16,36,34,38,46,100,100,100,59,100,100,77,78,100,100,100,100,100,0,0,0,0,0,0,0,0,0,0,0,0,0,0,0,0,0,0,0,0,0,0,0,0,0,0,0,0,0,0,0,0,0,0,0,0,0,0,0,0,0,0,0,0,0,0,0,0,0,0,0,0,0,0,0,0,0,0,0,0,0,0,0,0,0,0,0,0,0,0,0,0,0,0,0,0,0,0,0,0,0,0,0,0,0,0,0,0,0,0,0,0,0,0
100,100,100,3,5,18,29,25,38,100,91,25,47,40,45,85,97,40,42,30,23,17,20,29,49,37,36,46,49,51,41,59,52,38,73,95,83,58,26,8,9,3,8,13,10,8,13,5,12,8,5,3,8,17,13,3,5,10,17,10,13,17,13,13,5,15,8,5,0,12,9,13,13,12,0,0,0,5,10,13,13,13,8,10,13,10,13,8,8,8,20,26,17,12,13,11,13,8,0,0,3,12,8,0,5,13,11,36,92,40,80,62,45,37,17,20,41,36,34,30,28,32,41,44,40,66,51,44,49,46,24,37,43,36,32,33,11,12,0,0,12,19,26,13,10,10,5,5,3,5,13,8,0,0,8,15,15,13,17,25,24,20,14,13,18,13,14,16,12,0,0,0,0,0,5,20,53,38,68,100,100,62,76,100,100,100,100,98,31,33,27,34,68,61,46,50,39,33,3,5,0,12,12,17,16,11,15,26,42,45,34,35,62,76,68,57,38,14,18,8,10,17,22,18,8,12,5,5,17,16,5,12,8,5,3,10,14,8,5,12,17,21,32,26,26,25,25,16,16,18,12,13,10,20,20,17,12,15,15,11,24,32,24,29,22,17,13,17,13,17,21,18,17,31,24,27,32,30,24,40,52,65,69,56,47,36,45,47,55,60,53,50,54,53,48,36,29,23,19,21,16,8,15,8,5,3,8,13,8,15,12,3,0,0,0,12,11,12,3,0,0,8,5,10,12,15,16,25,37,32,23,33,44,44,38,24,15,44,48,40,42,58,61,61,57,41,37,55,52,49,47,51,31,36,19,27,25,26,20,21,29,26,16,13,13,8,8,17,21,19,13,20,27,25,21,34,35,25,23,68,100,100,100,100,100,96,100,100,41,49,66,61,61,78,89,49,34,45,67,100,100,59,49,8,12,23,27,32,24,13,14,8,29,41,29,24,21,21,26,25,22,16,27,29,23,8,10,8,15,17,25,24,20,21,20,17,23,17,7,17,20,21,22,28,32,43,46,62,71,65,47,44,60,56,50,58,57,60,43,40,41,20,20,25,52,45,34,33,34,25,8,15,8,9,26,20,21,25,21,10,0,0,0,0,12,13,13,9,12,20,29,17,20,17,25,17,27,17,8,13,9,13,13,12,12,12,19,26,12,27,36,29,33,33,40,40,27,32,37,24,27,40,39,41,39,48,51,31,44,52,43,40,35,36,36,36,27,31,39,38,24,47,52,51,45,38,33,20,28,27,29,29,28,24,36,49,39,50,42,41,36,33,32,32,41,36,36,32,29,32,35,33,24,32,34,27,40,32,32,24,13,20,25,30,34,32,30,27,32,32,27,26,31,41,37,48,36,39,44,29,25,22,22,24,27,30,36,38,46,41,26,24,35,39,52,31,30,27,23,12,13,10,5,15,16,19,20,8,5,12,9,9,13,24,28,13,5,17,16,16,12,18,22,11,15,4,13,5,5,5,24,46,30,22,41,55,57,57,64,60,64,72,80,80,66,31,28,12,54,71,100,100,100,100,100,100,100,100,100,100,100,100,100,100,100,100,100,100,25,31,41,99,100,100,100,100,97,36,51,58,41,100,57,100,81,15,8,56,63,40,27,21,47,58,71,80,84,68,69,73,77,31,94,60,40,28,9,44,65,74,39,35,38,48,35,36,17,29,48,13,20,50,69,28,31,13,58,35,59,40,36,42,49,45,28,48,100,72,53,100,100,100,100,100,70,49,100,100,100,100,0,0,0,0,0,0,0,0,0,0,0,0,0,0,0,0,0,0,0,0,0,0,0,0,0,0,0,0,0,0,0,0,0,0,0,0,0,0,0,0,0,0,0,0,0,0,0,0,0,0,0,0,0,0,0,0,0,0,0,0,0,0,0,0,0,0,0,0,0,0,0,0,0,0,0,0,0,0,0,0,0,0,0,0,0,0,0,0,0,0,0,0,0
100,100,100,13,18,29,22,16,47,70,42,47,46,34,38,89,80,55,40,30,26,24,34,25,26,45,25,16,24,27,18,36,37,32,67,75,60,52,32,12,13,8,5,3,5,8,13,10,13,8,8,13,11,13,17,8,8,17,17,13,17,13,5,12,13,12,0,0,0,12,9,13,13,12,0,0,0,0,5,8,8,8,5,5,10,13,8,13,5,13,12,20,13,13,8,8,13,5,0,0,5,13,8,5,10,10,8,35,52,76,68,63,45,32,24,28,20,17,26,28,27,44,56,43,33,51,70,43,56,44,29,38,36,36,27,20,12,12,5,5,12,24,25,5,5,10,8,8,9,3,12,12,0,0,12,12,12,12,0,0,3,13,10,5,12,25,12,8,13,3,13,30,51,66,62,30,18,31,70,93,68,88,100,100,69,75,100,100,91,31,21,38,52,47,41,40,27,35,8,8,12,15,8,18,22,17,17,21,29,27,28,10,20,45,41,19,8,20,11,13,18,22,8,18,8,9,3,5,21,21,8,13,8,8,13,13,13,21,8,10,18,25,34,37,29,33,20,17,20,24,29,30,17,17,17,15,7,18,18,12,24,36,32,32,30,35,20,13,8,17,18,11,17,25,13,17,26,39,33,41,53,60,68,74,59,51,36,47,52,53,45,43,55,62,42,41,38,21,18,21,21,18,11,18,5,0,12,12,13,12,13,10,8,8,12,20,14,10,5,0,0,3,13,14,16,20,29,28,30,26,23,32,36,31,24,20,25,40,49,50,52,56,60,58,57,29,52,64,70,43,41,43,39,19,12,8,20,17,20,26,28,18,25,21,5,0,0,5,5,18,13,36,48,29,7,18,36,26,30,74,100,100,100,89,66,76,100,100,25,30,30,43,67,100,98,63,37,35,71,100,100,100,47,10,13,16,26,17,14,10,12,10,17,14,18,37,30,10,25,24,16,19,21,15,5,9,8,13,12,13,11,13,8,5,8,25,12,12,5,18,25,23,24,33,40,48,44,50,62,67,43,48,68,63,55,54,54,50,44,46,29,16,28,34,38,51,33,39,25,17,13,8,10,21,21,10,10,7,10,0,0,0,0,0,12,8,12,4,13,13,19,20,21,19,26,20,15,19,12,12,13,0,8,0,0,12,21,10,18,42,34,31,32,27,49,44,23,32,37,34,26,39,41,29,40,47,48,32,40,43,43,35,35,44,37,29,32,35,44,37,21,30,27,30,43,24,12,18,19,25,33,27,23,24,27,40,27,33,36,33,32,31,29,34,35,29,32,22,20,24,29,26,19,27,42,32,27,31,32,29,25,20,17,8,21,32,37,37,19,34,26,24,35,41,38,49,48,33,41,43,32,44,35,27,31,38,37,38,45,41,34,29,25,45,38,37,28,34,35,24,30,22,23,8,16,21,19,15,8,8,13,10,13,24,25,13,8,12,15,15,12,12,16,15,11,18,10,13,8,10,32,38,29,28,44,55,60,59,64,56,60,64,67,75,51,40,28,29,70,89,100,100,100,100,100,100,86,100,100,100,100,100,100,100,100,100,100,100,25,12,36,33,78,82,100,100,100,68,5,20,30,92,100,74,5,9,13,3,31,30,42,29,19,50,73,76,61,62,65,64,63,58,45,54,27,29,17,27,100,100,37,10,29,5,34,31,65,46,31,12,27,37,35,82,53,18,45,85,24,41,33,45,100,67,100,20,26,65,100,46,48,41,83,81,78,63,100,100,100,100,0,0,0,0,0,0,0,0,0,0,0,0,0,0,0,0,0,0,0,0,0,0,0,0,0,0,0,0,0,0,0,0,0,0,0,0,0,0,0,0,0,0,0,0,0,0,0,0,0,0,0,0,0,0,0,0,0,0,0,0,0,0,0,0,0,0,0,0,0,0,0,0,0,0,0,0,0,0,0,0,0,0,0,0,0,0,0,0,0,0,0,0,0
0,100,100,8,11,25,31,14,26,30,41,27,34,24,41,80,80,69,60,45,33,34,34,32,16,17,10,16,29,34,25,41,33,38,90,72,55,40,20,20,17,8,0,0,0,5,3,5,12,12,12,13,10,13,8,13,13,13,8,8,8,13,8,10,13,8,5,8,12,15,10,13,9,12,0,0,0,0,0,0,8,13,8,0,5,3,8,10,13,13,16,11,12,8,8,15,8,0,0,0,0,12,12,3,12,8,8,17,21,24,50,45,36,29,20,24,26,21,28,19,66,58,61,78,28,56,43,45,57,57,36,38,28,31,28,16,15,22,21,8,8,17,24,18,12,18,23,10,13,17,16,18,5,5,13,8,8,13,5,0,5,10,10,10,13,8,13,9,12,52,45,66,65,86,86,66,63,41,71,73,38,100,100,71,16,30,62,100,86,47,18,36,49,25,34,18,18,31,24,15,12,8,8,17,24,15,16,26,25,42,27,18,12,12,12,17,5,12,12,5,15,24,25,20,14,8,5,8,16,17,5,8,13,13,13,3,18,13,8,17,10,8,26,10,26,22,13,10,14,10,25,32,16,8,8,8,12,20,24,25,26,34,41,18,35,46,33,12,9,18,17,10,17,25,20,16,15,32,32,37,52,56,65,63,60,45,37,45,49,53,47,36,59,61,54,38,38,26,16,16,21,19,18,19,13,0,12,16,13,12,13,10,12,13,12,11,18,5,0,0,0,5,10,13,20,24,28,38,32,14,24,28,21,24,20,8,40,43,52,55,62,54,53,59,54,38,53,72,66,30,33,34,30,13,15,12,14,27,26,21,11,15,13,15,5,5,3,7,13,18,8,28,58,35,22,26,41,23,34,63,99,100,100,100,46,44,100,100,35,31,34,25,38,90,100,87,64,52,100,100,94,100,94,8,18,26,32,29,30,20,15,8,18,13,20,34,19,10,15,20,24,25,17,8,5,3,8,13,7,17,17,9,13,8,13,9,8,10,7,13,20,40,40,42,45,38,46,47,60,57,56,58,64,64,50,59,59,45,46,41,28,12,32,40,40,44,32,28,15,9,13,9,11,17,17,0,0,0,0,0,0,0,5,3,13,13,12,5,8,12,12,25,24,25,21,13,15,9,13,13,5,9,13,17,20,20,20,21,22,30,33,22,34,22,36,45,27,31,35,28,30,27,31,32,45,39,44,39,37,36,39,40,31,37,29,37,52,54,38,33,26,18,21,29,26,19,20,22,19,12,14,25,24,16,17,21,18,27,31,26,17,30,36,33,26,23,24,17,8,13,18,25,26,23,35,36,28,36,36,29,24,27,32,26,21,21,34,43,40,34,44,37,41,41,40,40,48,44,50,59,48,46,43,43,36,40,38,38,43,38,30,21,23,30,31,34,35,39,40,38,26,36,19,13,13,19,21,19,20,12,12,3,12,20,16,16,12,12,15,15,12,12,12,8,18,16,21,18,13,3,21,31,32,27,44,56,64,72,68,52,56,68,72,67,60,40,31,48,89,100,100,100,100,100,100,100,100,100,100,100,100,100,100,100,100,100,100,63,24,69,40,44,52,67,100,100,100,72,8,8,9,90,100,93,13,12,10,5,12,25,31,20,14,31,58,76,51,70,79,73,63,57,49,37,16,28,39,41,73,72,41,19,21,34,12,64,32,13,38,31,32,27,28,21,63,51,61,71,17,34,5,46,86,100,92,13,25,75,69,78,37,53,79,78,98,100,100,71,100,100,100,100,0,0,0,0,0,0,0,0,0,0,0,0,0,0,0,0,0,0,0,0,0,0,0,0,0,0,0,0,0,0,0,0,0,0,0,0,0,0,0,0,0,0,0,0,0,0,0,0,0,0,0,0,0,0,0,0,0,0,0,0,0,0,0,0,0,0,0,0,0,0,0,0,0,0,0,0,0,0,0,0,0,0,0,0,0,0,0,0,0,0,0
100,100,100,8,13,20,15,19,25,26,12,14,18,12,21,57,83,84,68,39,27,24,29,31,29,12,4,13,22,35,13,25,42,40,80,99,65,30,17,8,17,18,5,0,0,5,3,3,13,8,13,8,5,3,9,8,10,8,0,0,5,10,20,12,16,12,13,13,16,7,5,8,13,8,0,0,0,0,0,0,12,9,12,5,3,5,5,8,8,8,13,12,13,11,13,8,5,3,5,0,0,8,13,5,13,8,12,16,13,10,21,32,22,18,12,15,16,20,29,30,55,100,26,42,51,56,39,43,52,52,51,40,24,23,29,18,8,29,38,17,8,16,21,22,15,20,22,16,12,25,24,24,21,21,14,7,5,10,10,5,0,5,13,9,12,5,18,22,26,45,100,31,60,62,76,75,84,88,50,48,61,100,100,54,21,27,24,60,88,95,57,43,41,25,37,24,5,37,37,30,24,25,12,19,25,8,13,17,29,24,18,8,17,13,8,13,12,12,12,0,16,28,23,18,19,13,0,12,11,12,3,5,13,4,13,5,12,12,12,9,12,17,33,27,24,24,20,20,25,17,17,21,16,7,10,13,16,17,21,20,18,25,27,24,21,32,39,14,10,18,12,8,13,17,9,9,10,25,23,41,51,47,58,61,56,52,36,49,52,60,55,40,41,60,59,31,32,27,17,12,17,17,12,25,16,0,12,16,13,8,13,4,3,5,8,15,8,3,8,3,8,8,8,5,16,28,27,35,28,14,19,16,13,17,28,23,38,49,50,55,66,62,54,54,42,56,56,59,56,26,34,30,11,8,8,15,21,27,29,14,18,8,5,10,18,10,13,14,20,8,19,46,36,11,26,40,34,14,30,44,77,100,100,100,57,58,100,100,43,40,20,18,38,71,89,100,100,100,100,100,93,100,59,28,24,32,38,38,37,16,12,12,8,18,32,29,16,4,13,17,24,25,17,23,12,12,11,17,8,17,17,8,13,21,14,8,18,20,14,11,23,65,57,38,28,43,49,49,51,54,60,67,54,49,61,56,47,50,42,24,12,18,33,27,40,53,45,28,15,9,12,7,19,20,17,0,0,0,0,0,0,5,10,13,9,8,12,8,0,0,0,8,16,16,11,15,8,10,13,10,8,3,17,30,23,7,30,36,16,20,17,20,28,20,32,33,29,40,40,45,38,20,40,35,35,45,35,47,48,32,40,35,27,40,32,36,60,69,45,50,38,27,35,36,34,28,28,24,18,16,20,18,10,3,3,13,21,16,15,11,17,25,31,36,24,24,24,13,10,8,13,16,29,28,31,33,22,29,29,16,16,24,37,40,32,19,16,34,40,40,42,40,28,36,43,44,54,47,67,53,38,32,36,39,28,34,32,40,41,35,32,26,19,24,27,30,32,31,35,34,27,29,38,25,20,22,22,22,22,16,15,8,12,15,15,15,12,13,16,15,12,12,13,3,5,15,24,33,24,18,18,28,27,36,43,52,55,67,67,60,53,66,69,64,56,50,33,44,88,100,100,100,100,100,100,100,100,100,32,100,100,100,100,100,100,100,100,100,100,100,93,100,100,100,48,54,31,54,43,55,17,54,64,44,13,28,24,23,8,35,57,29,42,29,24,55,77,68,65,77,79,55,50,46,28,29,76,47,18,29,34,21,23,21,26,12,23,17,29,23,9,30,25,15,54,89,84,84,35,30,43,36,100,100,100,18,36,39,46,29,48,72,89,63,100,100,81,100,100,100,100,100,100,0,0,0,0,0,0,0,0,0,0,0,0,0,0,0,0,0,0,0,0,0,0,0,0,0,0,0,0,0,0,0,0,0,0,0,0,0,0,0,0,0,0,0,0,0,0,0,0,0,0,0,0,0,0,0,0,0,0,0,0,0,0,0,0,0,0,0,0,0,0,0,0,0,0,0,0,0,0,0,0,0,0,0,0,0,0,0,0,0,0
100,100,100,5,14,16,23,13,20,18,21,16,3,13,22,55,72,63,55,26,20,26,29,38,35,13,8,7,22,31,19,35,42,61,87,88,54,24,12,8,21,16,3,0,0,3,9,12,13,8,13,5,0,0,3,9,10,8,8,5,3,13,13,11,16,16,12,11,13,8,0,5,3,5,0,0,0,0,0,0,8,13,8,8,13,8,3,9,3,3,12,11,16,13,8,12,13,12,10,5,0,8,12,3,12,12,12,12,13,8,10,19,26,22,16,12,17,21,51,24,68,59,58,44,48,47,43,44,39,65,59,44,20,20,20,17,8,15,23,17,13,13,19,22,15,17,18,21,12,28,17,15,21,16,18,13,13,12,17,21,17,17,18,10,13,15,14,30,38,54,72,56,60,56,66,81,83,99,97,76,53,72,90,57,37,19,20,28,72,81,59,34,37,35,47,27,5,33,37,14,53,39,37,35,16,8,13,13,18,10,8,17,16,15,13,20,13,11,18,8,17,20,23,13,20,17,5,12,16,13,5,0,8,13,10,13,15,8,12,19,27,30,21,23,12,13,8,17,21,22,18,5,17,21,18,15,20,14,10,5,20,22,29,28,20,26,28,17,21,19,13,8,3,7,16,13,16,20,16,36,48,51,52,66,71,59,51,40,57,56,66,51,28,54,60,37,27,24,24,20,13,12,16,16,23,8,12,12,10,13,14,18,8,8,13,8,12,13,8,9,5,15,13,10,13,22,41,39,28,19,23,5,15,7,30,41,55,55,52,40,52,65,67,55,48,47,58,57,40,28,28,20,12,12,7,16,22,19,17,13,10,5,8,17,16,17,10,15,14,20,21,36,37,8,19,41,31,23,34,27,14,61,100,100,100,100,100,93,36,29,10,13,12,25,62,100,100,100,70,99,94,56,50,33,25,10,26,22,32,21,17,17,3,17,25,27,11,21,19,10,11,24,35,24,10,9,20,24,21,8,13,12,17,16,18,21,19,13,18,13,32,62,71,35,48,64,62,49,51,59,67,65,54,50,55,65,40,45,51,16,16,17,26,26,45,44,41,34,20,14,12,10,7,26,25,0,0,0,0,0,0,8,13,8,4,9,13,3,0,0,0,5,8,13,13,8,0,5,3,5,0,10,26,13,13,10,24,29,12,15,12,17,28,24,28,24,47,48,35,45,28,24,36,36,40,36,36,56,53,33,40,40,36,35,33,42,72,82,46,46,47,37,24,26,34,29,35,22,13,13,15,16,13,8,12,12,18,18,21,21,20,17,16,24,43,32,17,13,14,18,12,17,16,26,32,37,31,34,31,23,30,27,25,30,32,24,21,21,27,34,33,33,24,20,26,33,37,51,50,43,32,24,26,32,35,26,25,36,33,33,35,30,22,19,31,25,24,30,35,37,30,30,32,29,13,18,19,25,24,15,16,12,12,15,15,16,17,18,13,22,20,11,18,12,10,12,29,33,28,23,18,24,27,45,47,51,59,63,62,63,63,65,71,63,52,44,37,44,89,100,100,100,100,100,100,100,100,39,31,16,100,47,100,100,100,100,86,100,100,100,41,100,100,100,7,21,10,44,100,53,8,20,20,14,8,20,50,28,18,43,41,33,63,96,22,42,88,73,71,82,65,58,53,51,60,32,44,74,41,38,38,20,17,15,27,32,20,21,17,17,39,35,50,13,39,40,77,57,25,23,19,26,32,24,38,13,31,44,28,84,88,92,82,100,17,94,50,100,100,82,100,100,100,100,0,0,0,0,0,0,0,0,0,0,0,0,0,0,0,0,0,0,0,0,0,0,0,0,0,0,0,0,0,0,0,0,0,0,0,0,0,0,0,0,0,0,0,0,0,0,0,0,0,0,0,0,0,0,0,0,0,0,0,0,0,0,0,0,0,0,0,0,0,0,0,0,0,0,0,0,0,0,0,0,0,0,0,0,0,0,0,0,0
100,100,100,13,20,34,35,25,25,18,18,13,5,22,45,62,70,80,63,42,36,31,29,50,27,16,12,34,39,32,12,34,38,64,84,72,40,33,17,8,17,18,5,0,0,5,8,13,8,13,8,0,0,0,5,8,11,13,13,3,8,8,8,12,13,13,12,10,13,13,3,5,0,5,3,5,0,5,3,5,5,3,5,12,9,12,8,0,8,8,12,16,15,16,13,13,8,8,13,8,5,10,11,8,13,12,12,12,8,10,8,18,16,28,19,11,17,13,49,77,17,49,53,47,51,51,47,39,39,55,64,46,25,20,15,15,12,0,8,13,5,8,18,14,12,8,14,39,38,26,24,16,13,8,13,8,8,12,17,21,16,20,24,19,21,16,38,41,44,41,82,81,59,48,53,54,74,78,90,84,50,27,57,62,43,17,20,24,36,53,41,3,34,46,41,33,3,25,32,52,50,72,69,82,78,78,68,69,45,55,42,16,16,19,25,23,17,18,16,17,10,10,27,15,12,12,3,12,15,12,5,3,4,13,8,7,17,16,16,30,39,22,9,17,16,17,12,13,13,18,17,9,17,18,20,24,27,14,13,13,26,23,20,29,20,17,17,15,17,13,13,12,5,10,12,17,27,37,16,28,38,42,58,71,69,59,60,50,57,59,58,49,32,46,50,49,51,16,24,24,17,8,13,16,16,13,16,12,5,8,18,14,15,8,8,15,16,13,8,8,13,12,8,12,12,25,44,43,28,28,21,13,18,19,27,37,53,54,40,46,61,64,67,64,40,53,54,40,37,28,24,17,12,16,15,12,11,18,8,12,15,7,13,10,18,10,5,5,10,14,30,38,21,3,26,35,30,19,30,31,33,32,73,97,100,80,98,49,28,15,5,10,17,28,42,26,49,99,45,54,76,53,53,69,46,40,26,30,5,16,27,25,3,23,30,26,13,33,36,8,8,18,28,31,30,13,13,24,24,8,11,13,10,12,18,20,21,17,8,25,42,54,50,47,55,55,51,49,51,49,56,67,57,51,64,55,33,35,34,17,20,15,27,38,31,37,36,23,22,20,5,12,8,17,30,25,25,17,10,0,0,8,13,8,8,8,8,5,0,0,0,0,0,8,0,8,0,0,0,0,0,17,26,13,10,8,16,16,16,20,17,19,34,26,29,20,47,48,36,31,32,33,45,42,40,36,26,44,46,44,44,40,49,48,43,33,70,64,48,52,37,25,25,28,27,25,17,8,8,5,12,17,21,20,24,28,28,28,28,25,16,17,20,13,37,41,21,24,22,22,16,25,31,30,37,35,42,38,31,32,37,25,22,27,27,29,25,29,20,30,26,27,30,34,26,22,26,22,25,40,48,36,24,32,25,31,27,34,32,33,36,40,27,21,21,29,34,31,45,43,39,37,32,31,31,20,20,34,27,17,17,18,8,17,22,18,16,14,18,21,19,18,13,8,10,23,29,30,39,28,8,25,31,35,48,47,55,58,67,71,81,74,71,57,49,40,39,31,73,100,100,100,100,100,100,100,45,66,36,20,100,100,100,95,100,98,38,100,100,100,27,100,100,100,27,100,100,100,57,62,16,12,10,4,13,29,31,24,10,12,16,13,57,53,37,18,57,83,93,77,78,75,93,86,90,41,26,49,56,39,18,29,28,28,37,38,37,31,44,22,28,77,65,55,25,31,17,12,44,35,41,5,69,60,77,0,0,40,84,89,53,34,38,100,100,100,67,100,82,72,43,100,100,100,100,100,0,0,0,0,0,0,0,0,0,0,0,0,0,0,0,0,0,0,0,0,0,0,0,0,0,0,0,0,0,0,0,0,0,0,0,0,0,0,0,0,0,0,0,0,0,0,0,0,0,0,0,0,0,0,0,0,0,0,0,0,0,0,0,0,0,0,0,0,0,0,0,0,0,0,0,0,0,0,0,0,0,0,0,0,0,0,0
100,100,100,21,26,26,54,59,52,14,18,10,10,26,52,61,79,98,94,56,43,48,45,47,35,12,19,45,64,48,41,58,46,69,61,47,47,31,12,12,15,12,0,0,0,0,3,12,12,13,8,8,5,5,8,13,10,8,13,4,10,10,8,3,5,8,8,5,12,8,9,3,5,10,12,10,5,8,13,8,0,0,5,13,9,13,10,12,13,13,11,13,16,12,13,8,0,5,13,8,15,14,13,12,13,8,13,12,9,10,13,18,16,33,21,12,13,8,35,38,28,50,51,47,50,60,52,39,48,51,49,34,29,25,22,20,17,0,5,10,10,5,5,10,10,3,27,41,39,41,34,22,13,9,9,17,5,3,8,5,12,20,20,17,19,25,40,79,48,48,76,81,48,37,19,11,12,17,41,90,75,46,27,56,63,35,26,24,23,36,36,27,38,42,50,24,13,11,27,53,100,81,75,100,100,72,100,78,62,60,57,44,32,20,20,12,8,8,17,5,8,13,22,30,13,13,5,12,15,12,3,9,3,12,12,8,18,25,21,15,28,28,24,20,25,12,12,16,16,8,22,29,16,15,23,48,41,5,7,20,22,14,15,20,11,8,8,16,7,3,13,8,13,15,8,21,37,43,42,22,31,36,53,71,69,58,60,47,64,70,64,56,41,36,44,54,48,26,19,24,23,8,13,8,17,20,11,12,0,0,5,13,12,15,8,12,16,13,8,13,8,13,10,13,8,20,36,40,33,27,21,17,21,21,22,45,56,49,50,60,50,52,60,48,59,63,57,40,34,29,20,8,18,17,8,0,12,8,13,17,21,14,10,13,18,10,5,5,5,13,33,26,8,3,19,29,34,33,25,26,35,42,68,92,44,27,34,38,16,25,8,12,29,29,45,44,50,41,50,48,32,72,61,72,75,59,38,14,16,20,32,45,38,19,32,36,20,42,38,14,19,18,9,40,34,13,3,16,19,20,12,13,8,15,14,21,22,10,10,40,60,57,60,63,57,46,44,49,45,54,61,62,57,49,49,46,23,29,24,27,29,19,37,37,36,36,31,16,12,18,17,13,15,9,17,25,26,26,7,0,0,5,3,8,3,5,0,0,0,0,0,0,0,8,13,8,0,0,0,0,0,25,25,8,3,8,16,20,25,27,22,24,27,26,17,24,36,44,31,35,32,32,44,46,38,41,29,39,37,56,50,38,42,48,49,34,48,64,43,43,45,30,20,10,27,21,12,8,0,0,5,20,24,24,28,32,23,20,16,25,28,24,21,17,33,36,20,25,22,25,19,27,43,41,37,45,48,36,20,33,24,16,18,19,30,32,31,39,33,22,19,31,30,30,30,30,32,32,27,35,41,33,26,32,33,31,19,31,38,38,40,38,30,24,26,31,24,28,29,41,48,39,27,31,28,30,14,28,29,27,16,16,16,16,21,19,13,13,8,15,16,16,13,8,5,17,29,17,28,21,3,25,35,40,57,52,61,73,86,88,87,73,53,57,55,38,36,55,89,100,100,100,100,100,100,100,100,63,27,24,100,100,100,72,78,12,46,72,36,92,24,14,39,56,66,94,100,100,11,21,9,29,37,43,18,21,13,3,18,8,21,29,27,27,25,22,29,100,96,84,57,100,100,100,73,53,67,32,65,43,29,30,33,19,33,40,41,63,49,33,18,8,51,63,72,64,46,90,59,84,44,78,87,100,73,10,0,41,39,47,30,54,60,96,100,100,52,64,69,48,35,26,100,100,100,100,0,0,0,0,0,0,0,0,0,0,0,0,0,0,0,0,0,0,0,0,0,0,0,0,0,0,0,0,0,0,0,0,0,0,0,0,0,0,0,0,0,0,0,0,0,0,0,0,0,0,0,0,0,0,0,0,0,0,0,0,0,0,0,0,0,0,0,0,0,0,0,0,0,0,0,0,0,0,0,0,0,0,0,0,0,0,0
0,100,100,24,25,13,65,100,91,89,75,82,54,63,67,68,98,100,77,37,33,36,49,24,18,8,24,59,82,47,78,73,78,76,61,58,67,45,20,23,17,8,5,3,5,0,5,13,16,16,13,13,10,10,15,8,5,8,13,10,13,5,3,5,8,13,8,0,12,13,8,8,8,12,9,13,7,13,9,12,0,0,8,13,10,10,8,9,8,8,8,13,13,8,8,8,5,8,13,8,17,18,10,8,3,8,13,7,13,8,5,5,21,26,21,13,18,12,12,25,28,32,43,47,47,52,47,43,48,44,40,35,28,22,25,28,16,3,5,5,13,8,0,5,13,12,28,44,43,43,44,26,11,15,12,14,17,11,15,25,27,24,17,16,20,16,38,35,34,60,84,85,52,53,35,17,8,0,25,87,94,49,100,44,72,57,46,27,20,41,37,46,90,92,43,37,19,27,38,34,81,81,62,100,100,100,80,65,85,100,77,81,66,46,24,12,15,11,13,5,12,13,23,19,5,15,8,12,15,12,5,3,4,13,8,18,12,9,12,5,16,25,25,13,12,4,15,13,13,13,27,34,15,31,52,73,67,59,33,18,21,13,8,13,8,15,17,15,17,17,17,4,17,17,8,13,26,47,46,20,23,30,55,64,71,54,64,52,52,59,64,62,41,39,40,44,39,28,25,21,18,15,12,15,18,20,16,12,8,12,12,15,7,8,15,16,12,13,8,13,8,10,13,8,17,29,29,32,32,31,25,18,21,16,32,48,54,45,55,49,48,55,51,53,60,64,50,37,33,24,22,11,13,17,8,0,12,13,7,19,21,13,18,19,24,20,15,17,8,17,27,23,8,11,20,5,36,56,47,42,29,18,66,57,29,13,37,33,17,12,13,20,29,29,36,50,52,41,21,43,66,72,33,46,86,67,39,13,20,26,32,35,40,45,46,27,26,51,40,21,22,24,25,38,37,17,12,20,20,20,16,8,12,16,13,12,26,31,31,38,59,74,67,71,54,55,51,46,51,72,65,60,55,42,32,40,29,27,22,34,36,37,36,40,44,33,26,20,11,18,16,8,8,15,8,5,17,26,10,0,0,0,0,0,0,0,0,0,0,0,0,0,0,12,9,13,5,0,0,0,0,17,30,20,8,8,17,24,29,31,12,19,29,20,12,20,44,49,31,40,33,51,48,45,36,38,28,35,36,45,51,41,36,43,39,24,55,59,50,40,55,39,12,12,28,25,13,18,12,17,25,28,33,28,23,24,16,15,20,24,28,20,14,24,26,24,12,12,17,22,20,31,41,43,33,36,48,47,41,32,27,23,12,17,29,27,29,34,37,29,17,17,21,27,39,45,35,40,29,34,27,35,40,29,49,42,17,26,40,38,39,41,35,24,22,22,25,17,17,26,38,51,52,25,27,30,20,17,29,27,16,16,16,16,18,25,21,8,13,5,18,17,16,12,0,13,21,31,19,13,3,29,40,40,59,59,57,68,80,100,92,72,47,58,57,32,40,76,100,100,100,100,100,100,100,100,100,100,100,16,10,8,69,100,100,30,81,100,100,100,41,54,46,58,61,100,68,100,5,8,15,40,70,37,16,9,17,60,44,55,21,24,36,22,39,30,15,63,98,100,83,68,64,71,75,49,50,27,23,41,45,37,28,47,36,49,33,37,36,21,21,14,30,56,89,25,77,22,86,40,31,89,100,88,100,38,33,21,13,56,53,17,29,52,70,81,65,88,60,38,83,76,40,67,100,100,100,100,0,0,0,0,0,0,0,0,0,0,0,0,0,0,0,0,0,0,0,0,0,0,0,0,0,0,0,0,0,0,0,0,0,0,0,0,0,0,0,0,0,0,0,0,0,0,0,0,0,0,0,0,0,0,0,0,0,0,0,0,0,0,0,0,0,0,0,0,0,0,0,0,0,0,0,0,0,0,0,0,0,0,0,0,0
100,100,100,10,52,41,87,77,31,97,100,39,77,38,72,73,82,96,37,14,8,11,21,13,5,8,24,70,83,55,84,86,79,84,52,50,63,52,29,20,15,5,3,9,3,0,0,12,15,11,12,4,12,8,12,0,0,5,13,9,12,3,9,5,13,9,12,0,12,12,3,14,8,13,10,13,12,13,13,12,3,5,12,12,5,5,9,3,0,0,12,16,12,12,9,10,8,12,13,13,7,13,8,0,0,12,12,5,3,5,5,8,22,23,12,20,17,20,17,19,62,41,48,47,52,64,51,43,40,41,48,44,24,20,23,32,25,13,7,5,17,11,8,5,8,13,34,38,32,35,39,32,20,17,13,11,13,22,23,36,34,21,13,13,14,0,10,29,66,30,79,100,100,100,100,80,45,34,49,77,93,66,61,50,47,73,62,42,32,52,27,67,54,100,92,69,32,21,29,39,86,51,44,70,100,49,100,100,98,100,100,100,100,100,74,54,17,15,12,0,8,15,10,12,18,8,15,16,15,12,0,5,10,10,8,17,14,8,8,12,8,8,8,17,21,14,8,3,12,15,25,23,17,52,75,88,92,70,44,30,14,8,18,24,30,25,17,12,23,28,16,8,12,5,9,18,31,36,33,25,10,29,56,62,76,68,62,56,48,55,57,55,50,48,45,40,43,27,20,29,20,12,12,10,25,19,15,16,13,13,12,8,5,0,12,16,13,12,12,12,12,5,3,10,29,36,32,22,28,31,28,17,18,11,39,52,48,47,45,37,58,56,56,60,65,56,40,36,32,26,19,14,8,13,8,0,12,12,10,14,15,8,16,21,21,17,21,18,17,26,19,17,16,22,14,35,65,81,57,43,39,38,39,27,32,25,30,33,15,18,21,26,27,23,18,52,52,38,10,34,56,49,24,36,62,73,70,48,18,18,12,7,32,60,56,37,19,21,30,13,21,22,23,34,32,26,16,22,19,18,20,8,12,15,16,18,29,36,46,58,90,93,80,68,52,62,62,52,57,68,66,44,41,21,26,29,40,45,32,39,51,52,46,50,47,35,27,22,21,7,12,12,5,10,13,3,25,26,7,10,0,0,0,0,0,0,0,0,0,0,0,0,5,13,10,13,8,0,0,0,0,17,17,14,21,14,31,22,28,24,13,20,24,24,17,12,41,44,35,43,41,35,57,40,39,40,31,42,29,36,36,31,39,44,35,25,45,61,52,49,57,48,30,31,24,28,17,17,20,24,26,30,22,31,20,12,16,16,12,12,13,11,13,33,29,23,16,16,13,13,20,25,30,33,35,39,38,39,39,45,38,29,12,12,20,29,29,29,27,29,28,12,12,30,28,47,45,40,34,32,32,36,43,39,54,51,30,20,24,43,42,43,41,40,24,14,21,24,21,17,31,60,42,19,23,32,32,13,16,20,17,8,18,17,16,20,16,8,13,8,8,17,22,18,5,5,13,14,25,9,21,38,40,62,66,69,59,62,91,82,70,64,54,44,40,17,54,66,100,100,99,100,100,100,100,100,100,100,100,17,8,13,77,100,57,47,71,100,100,100,5,74,98,96,100,100,100,47,8,12,12,46,33,33,12,9,10,45,93,41,20,28,29,40,39,25,14,43,73,97,77,63,55,69,66,61,49,53,40,43,47,60,54,61,58,43,45,47,41,45,24,19,24,39,52,37,13,48,16,44,28,87,100,100,69,40,38,32,32,49,92,44,31,21,88,100,82,67,100,85,76,34,59,75,100,100,100,100,100,0,0,0,0,0,0,0,0,0,0,0,0,0,0,0,0,0,0,0,0,0,0,0,0,0,0,0,0,0,0,0,0,0,0,0,0,0,0,0,0,0,0,0,0,0,0,0,0,0,0,0,0,0,0,0,0,0,0,0,0,0,0,0,0,0,0,0,0,0,0,0,0,0,0,0,0,0,0,0,0,0,0,0,0
100,100,100,27,50,98,12,28,39,38,43,46,27,80,84,77,76,73,33,18,5,12,13,13,11,13,13,58,60,61,63,74,73,55,62,57,48,18,13,8,3,0,5,3,5,0,5,13,16,16,13,13,10,10,15,12,8,5,8,13,8,5,5,4,10,8,13,5,8,15,8,13,18,13,4,13,12,13,13,12,9,3,12,12,0,5,3,5,0,0,12,11,12,8,3,13,12,8,13,10,5,13,8,0,0,12,12,0,0,5,10,12,19,21,15,16,20,24,25,18,48,89,26,56,47,59,61,36,34,40,51,45,21,24,28,40,33,13,16,17,21,23,16,21,17,8,27,38,27,36,34,20,33,30,8,8,17,19,28,24,20,22,21,17,20,13,17,35,35,56,71,98,100,100,100,100,83,69,41,39,61,72,68,80,51,50,36,40,28,38,59,66,100,38,24,58,75,56,52,68,58,65,68,50,63,100,100,72,81,91,100,100,100,96,97,76,56,24,13,8,8,8,10,14,14,10,8,16,20,15,12,18,13,3,8,17,17,8,5,13,11,14,13,20,13,8,5,4,10,19,23,8,30,70,75,57,46,59,58,42,8,13,13,33,48,56,58,42,32,44,38,9,17,14,5,17,30,35,27,13,0,17,49,55,63,67,71,69,40,48,50,55,54,54,44,43,40,28,19,28,20,12,12,18,26,17,16,12,13,8,0,5,3,5,12,11,12,16,12,8,15,8,8,26,27,28,27,29,22,28,28,15,16,14,47,53,50,40,35,45,52,50,48,47,52,55,49,31,44,38,26,17,17,17,8,5,18,14,10,12,14,26,19,15,9,13,17,29,24,17,13,13,16,17,3,50,72,62,66,49,28,24,31,12,23,24,8,31,23,21,24,26,21,31,21,33,57,48,37,39,33,27,41,44,33,33,55,55,35,17,13,20,30,39,45,33,22,16,11,8,15,13,9,25,30,18,13,19,22,20,15,8,13,16,20,17,20,37,45,69,82,95,86,55,50,60,59,46,52,52,53,40,18,8,20,27,33,60,64,40,61,57,53,36,51,32,20,11,18,13,15,8,0,8,13,5,25,19,26,21,10,0,0,0,0,0,0,0,0,0,0,0,8,13,5,8,13,5,0,0,10,21,26,20,20,27,24,23,25,24,12,11,19,28,20,21,43,45,44,39,32,41,42,38,45,40,40,37,24,38,34,37,43,48,36,25,30,51,51,52,66,77,56,51,34,33,17,8,13,23,13,5,12,12,3,11,15,16,25,20,13,13,7,25,24,18,16,12,17,20,17,19,20,17,20,29,25,26,28,30,33,43,43,37,27,33,31,35,32,39,45,34,37,23,27,16,22,31,30,31,29,29,34,45,43,40,29,29,26,31,38,37,45,35,29,20,8,16,16,17,17,36,40,20,20,33,39,23,16,16,11,13,8,16,20,15,15,12,12,12,5,18,19,16,15,5,0,8,13,16,26,16,45,78,87,66,59,57,69,84,71,64,51,43,33,7,62,61,100,100,88,100,100,100,100,100,100,100,100,100,100,21,52,57,54,51,100,100,100,100,0,77,100,100,43,64,68,42,38,8,15,15,8,0,17,13,13,47,40,44,27,35,73,88,74,21,0,23,37,77,91,68,61,64,87,65,68,65,57,51,47,48,75,44,35,43,44,33,48,41,40,47,30,25,36,41,24,28,28,28,84,95,100,76,37,42,34,27,31,35,20,37,20,19,100,100,51,65,84,89,25,71,24,51,62,78,100,100,100,100,0,0,0,0,0,0,0,0,0,0,0,0,0,0,0,0,0,0,0,0,0,0,0,0,0,0,0,0,0,0,0,0,0,0,0,0,0,0,0,0,0,0,0,0,0,0,0,0,0,0,0,0,0,0,0,0,0,0,0,0,0,0,0,0,0,0,0,0,0,0,0,0,0,0,0,0,0,0,0,0,0,0,0
100,100,100,71,43,45,34,16,8,10,17,28,85,27,79,68,52,53,47,24,17,12,15,15,16,9,12,29,30,40,43,48,63,68,69,72,46,20,13,10,8,0,0,0,0,0,8,13,12,12,8,8,5,5,8,12,15,8,5,3,5,0,5,8,8,8,13,10,8,8,15,9,13,3,13,12,12,9,13,3,5,8,15,8,8,8,5,0,0,0,12,16,13,5,0,12,12,5,3,5,3,12,8,0,5,13,8,5,8,13,10,8,18,17,12,16,23,28,20,12,45,40,61,51,56,55,57,35,43,53,56,47,32,37,32,32,29,20,13,8,28,29,20,28,26,13,21,32,29,24,20,14,29,29,8,15,10,13,16,13,5,21,31,13,8,21,20,22,41,59,67,69,65,51,100,100,100,63,13,24,45,76,64,32,65,41,34,54,24,53,16,85,100,100,83,73,58,82,75,90,100,100,50,100,76,100,100,83,86,40,48,60,61,48,59,93,69,41,20,9,13,3,12,9,13,13,8,21,22,8,12,14,17,10,5,17,25,16,12,15,16,9,13,7,13,7,13,10,4,15,14,17,29,48,65,42,17,43,69,62,15,7,34,58,71,74,70,65,60,61,62,44,14,17,23,24,27,32,21,13,8,12,45,51,60,64,93,82,32,40,50,53,59,68,56,52,37,28,27,28,17,13,16,26,18,18,13,8,13,17,0,8,13,13,20,14,11,13,8,5,8,15,20,30,27,20,24,29,25,24,28,20,16,20,37,43,39,40,50,55,55,44,48,40,57,63,53,28,37,51,46,13,17,13,8,5,12,21,8,13,18,32,18,17,23,25,12,24,33,17,13,10,18,22,26,60,86,45,64,48,17,17,13,3,13,40,27,28,25,29,21,19,21,21,29,31,57,74,60,38,24,17,31,41,25,16,50,61,52,44,20,33,53,50,40,18,24,24,17,18,14,12,14,28,26,24,13,14,23,25,16,13,11,23,32,25,24,30,48,60,77,68,63,50,59,52,49,59,57,69,52,30,15,17,17,22,67,90,61,47,54,52,38,32,24,15,12,13,10,8,8,4,3,8,13,5,17,26,20,26,17,0,0,0,0,0,0,0,0,0,0,5,13,8,0,5,10,13,8,5,17,26,10,8,8,24,20,16,16,16,13,16,24,24,20,24,41,41,40,47,36,37,37,43,54,53,46,34,32,40,36,49,55,63,55,40,29,34,46,50,69,74,77,71,62,43,36,17,13,26,25,20,16,18,7,15,16,20,24,25,21,16,16,17,26,24,20,21,20,17,7,12,15,12,17,20,22,11,13,16,37,45,45,40,32,26,32,36,32,35,57,47,43,38,32,24,23,36,34,17,27,27,24,44,44,30,39,29,33,31,40,32,32,28,27,24,16,12,20,20,18,29,32,24,20,24,34,21,16,25,13,10,11,22,25,22,22,18,8,13,5,8,13,16,16,15,5,5,3,12,12,23,64,72,81,65,48,48,78,83,77,55,51,48,33,21,65,45,100,100,100,100,100,100,47,100,100,100,100,100,100,100,100,17,19,41,48,50,16,8,12,39,62,63,53,45,68,85,58,5,8,17,48,45,42,22,17,23,18,8,25,44,76,90,65,21,20,15,15,44,75,84,89,74,69,64,52,54,57,51,47,31,24,34,29,46,46,46,36,30,40,28,41,32,70,50,24,28,24,24,74,100,100,52,58,52,74,36,27,8,21,18,3,20,56,69,72,47,58,32,96,50,54,79,82,77,44,100,100,100,0,0,0,0,0,0,0,0,0,0,0,0,0,0,0,0,0,0,0,0,0,0,0,0,0,0,0,0,0,0,0,0,0,0,0,0,0,0,0,0,0,0,0,0,0,0,0,0,0,0,0,0,0,0,0,0,0,0,0,0,0,0,0,0,0,0,0,0,0,0,0,0,0,0,0,0,0,0,0,0,0,0,0
100,100,100,41,54,27,46,22,12,20,38,84,57,68,74,56,41,48,40,23,19,23,8,8,7,13,12,13,17,20,20,37,72,74,71,65,44,19,9,13,8,0,0,5,8,8,8,13,12,12,0,0,0,0,5,8,15,8,0,0,0,5,8,15,8,0,8,13,12,10,8,13,8,0,12,13,10,17,8,5,15,17,7,8,15,15,8,0,0,0,12,16,15,12,8,12,12,5,8,8,5,10,10,3,10,10,5,10,13,8,5,0,12,15,12,21,32,36,25,3,17,31,43,48,47,51,48,28,37,47,52,43,35,37,40,41,15,14,18,20,34,28,24,31,34,24,19,26,27,21,12,7,20,29,17,10,5,0,0,5,5,21,25,17,12,23,20,21,65,60,51,93,54,50,45,56,84,70,41,24,28,61,57,49,40,63,46,55,100,100,92,100,61,100,93,100,92,81,91,99,100,100,100,69,100,46,87,95,94,32,47,47,51,45,48,75,55,34,22,13,12,12,15,10,13,12,15,18,16,10,15,14,12,13,12,14,21,16,16,7,7,13,8,8,17,17,10,13,18,8,13,28,31,36,40,53,49,52,84,55,21,17,34,67,83,45,43,50,63,63,64,66,52,13,19,28,17,28,24,16,15,16,40,43,62,77,82,69,41,39,35,33,72,77,79,55,33,31,35,28,12,13,16,17,14,21,18,13,20,21,5,12,13,8,11,18,10,8,8,0,0,12,28,28,17,20,20,22,17,28,28,19,25,24,39,44,35,48,57,54,40,40,43,31,61,68,49,28,34,43,38,32,26,10,12,8,13,16,20,20,26,30,7,13,20,14,8,12,25,17,3,15,34,31,33,71,65,52,59,44,5,8,8,5,17,37,45,37,25,30,20,18,24,26,32,24,59,59,45,21,20,30,37,46,32,36,33,59,57,49,36,42,38,28,26,13,28,16,15,14,8,5,12,18,35,24,17,13,22,18,8,12,13,22,35,27,24,32,42,65,64,59,54,50,50,46,45,47,62,55,58,31,36,28,22,51,97,91,78,49,46,51,35,29,12,15,16,13,5,0,0,3,9,5,10,13,14,4,14,17,21,10,0,0,0,0,0,0,0,5,3,10,13,5,0,0,5,10,13,3,25,26,7,13,17,29,23,16,16,12,12,15,24,29,16,25,31,36,39,33,49,40,39,38,49,53,51,48,40,52,52,50,65,70,60,50,57,44,37,38,47,61,77,86,64,41,52,49,49,44,40,32,31,29,26,23,21,13,15,12,25,19,13,16,25,20,31,23,11,14,18,15,11,13,13,15,16,15,12,21,29,39,41,32,29,27,32,35,40,28,37,41,40,27,39,28,12,22,29,26,30,22,25,39,43,34,38,38,49,42,36,40,28,20,19,27,27,24,16,20,12,25,23,24,24,20,28,28,14,21,23,13,11,19,22,22,19,16,16,11,13,8,13,8,18,17,8,0,5,13,19,35,58,59,59,52,47,51,72,88,72,51,60,49,12,29,71,50,100,100,100,100,100,100,100,100,29,10,100,100,100,100,100,29,19,13,17,26,30,17,9,10,26,47,88,66,36,88,57,5,0,15,64,78,37,16,14,14,28,20,27,22,37,42,32,13,27,21,5,20,29,80,86,83,66,69,64,61,58,53,43,45,54,33,34,27,35,46,42,32,36,38,25,52,41,50,29,28,24,33,100,100,100,79,36,98,57,35,43,61,29,30,5,21,30,26,64,66,82,61,83,90,72,38,37,44,30,100,100,100,100,0,0,0,0,0,0,0,0,0,0,0,0,0,0,0,0,0,0,0,0,0,0,0,0,0,0,0,0,0,0,0,0,0,0,0,0,0,0,0,0,0,0,0,0,0,0,0,0,0,0,0,0,0,0,0,0,0,0,0,0,0,0,0,0,0,0,0,0,0,0,0,0,0,0,0,0,0,0,0,0,0,0
0,100,100,70,64,18,17,41,8,16,47,100,100,50,87,60,20,34,27,24,37,32,13,0,5,8,20,36,36,32,29,46,83,83,87,66,33,24,3,12,8,8,8,8,13,13,5,13,16,12,0,0,0,0,3,13,8,8,0,0,5,10,13,8,5,5,8,8,8,13,10,7,3,0,12,9,17,13,8,10,14,18,10,12,12,12,13,8,8,5,8,15,12,12,15,12,15,13,13,13,13,8,13,11,13,5,10,10,5,3,8,8,13,20,12,26,51,32,16,5,17,44,52,39,56,51,43,36,28,45,49,42,33,31,44,41,10,12,8,12,19,31,34,42,35,22,5,7,17,21,13,10,17,20,17,8,0,0,0,8,17,18,23,13,9,13,17,20,40,62,96,100,72,57,36,64,90,61,43,14,12,26,56,52,19,22,50,71,100,100,100,100,100,100,100,100,100,100,100,100,100,100,100,100,82,88,87,95,86,30,59,60,57,57,57,52,38,27,28,20,13,9,8,8,12,12,8,8,12,9,17,17,13,12,15,14,18,4,14,8,8,20,24,30,22,13,8,17,14,15,14,28,27,30,33,48,54,65,61,36,25,24,31,82,72,37,5,8,23,34,53,87,71,43,8,5,17,21,25,21,17,16,32,44,47,85,89,71,44,52,45,16,59,95,72,49,44,39,39,37,12,12,13,7,15,21,19,7,18,16,8,8,15,8,12,16,9,9,8,0,0,17,28,20,18,29,20,20,19,23,28,19,16,28,39,44,39,47,51,43,35,40,40,32,57,60,45,42,24,25,35,34,27,18,8,20,13,19,22,25,17,10,12,15,8,12,13,8,24,41,25,34,34,14,30,57,56,44,58,38,9,3,0,0,17,29,36,40,32,12,21,27,41,34,30,23,31,57,47,32,29,23,30,59,20,35,55,49,38,40,39,26,18,16,18,19,18,10,10,13,12,13,17,19,21,21,5,18,21,19,16,15,12,26,23,29,27,43,60,62,60,52,60,50,49,50,46,43,38,47,50,29,29,49,60,100,100,98,62,45,35,32,22,15,13,15,15,12,0,0,0,5,5,5,4,8,12,12,12,3,15,16,10,0,0,0,0,0,0,8,13,4,13,5,0,0,0,8,13,5,25,17,18,4,9,32,32,20,11,12,12,15,24,26,14,19,27,36,41,29,36,43,36,40,47,51,48,55,45,48,58,58,58,63,58,51,54,51,52,60,52,39,65,78,87,53,53,56,51,57,45,36,42,51,63,55,62,51,47,40,45,37,20,25,22,8,17,8,12,18,14,8,8,17,25,18,7,7,16,17,18,21,30,35,27,29,30,42,38,39,26,23,18,24,45,41,8,15,17,29,29,34,28,35,35,26,36,33,40,36,37,42,44,35,25,26,36,36,25,20,16,15,24,20,28,24,24,25,11,16,21,18,8,18,25,25,18,16,16,16,8,18,16,8,12,15,12,0,8,30,37,40,43,53,51,48,60,59,67,74,71,60,60,58,22,28,80,86,100,100,100,100,100,100,100,100,34,17,8,25,100,100,100,24,15,16,16,29,24,11,15,12,19,85,68,60,46,27,37,5,5,20,52,31,32,5,13,18,28,36,32,25,5,13,24,17,3,20,13,5,3,46,80,89,88,88,65,65,63,59,53,51,57,43,27,32,33,32,41,47,30,30,50,30,32,26,19,56,81,100,100,68,45,61,74,51,38,35,46,44,27,17,20,59,56,34,59,62,100,69,86,54,39,46,50,39,63,66,100,100,100,100,100,0,0,0,0,0,0,0,0,0,0,0,0,0,0,0,0,0,0,0,0,0,0,0,0,0,0,0,0,0,0,0,0,0,0,0,0,0,0,0,0,0,0,0,0,0,0,0,0,0,0,0,0,0,0,0,0,0,0,0,0,0,0,0,0,0,0,0,0,0,0,0,0,0,0,0,0,0,0,0,0
0,100,100,97,86,32,52,38,10,17,61,77,85,66,96,49,29,24,19,13,43,36,16,0,0,26,40,48,43,60,64,61,74,69,50,51,43,41,22,12,12,15,15,8,8,8,4,13,11,15,12,8,5,0,5,8,13,13,8,5,8,13,5,0,0,8,13,10,5,8,13,13,8,5,10,17,10,13,8,13,7,14,18,17,8,12,9,15,13,10,8,12,15,8,8,13,12,12,12,8,8,18,16,16,12,8,13,5,8,13,8,14,25,24,22,42,46,35,7,18,16,45,47,47,47,43,39,37,19,49,51,35,27,32,37,38,28,13,8,15,21,25,24,28,32,8,5,10,17,17,8,13,9,15,15,12,0,0,0,8,22,21,24,22,17,21,23,13,5,5,60,42,52,73,51,100,100,40,18,10,13,12,36,49,34,21,55,22,49,85,85,77,100,100,55,100,100,100,100,100,100,100,100,100,100,100,94,93,99,51,72,65,65,67,52,45,24,24,28,16,8,12,15,10,18,11,8,3,8,9,12,23,29,38,33,27,21,13,23,19,31,30,28,24,25,12,9,13,13,13,23,21,20,19,28,56,22,62,40,24,25,20,12,60,75,45,0,0,5,21,41,67,77,44,7,8,8,10,17,20,21,12,28,49,51,67,74,75,61,52,58,16,57,78,67,51,47,40,36,43,12,16,13,5,5,18,14,10,12,16,15,12,16,17,19,22,17,9,12,3,3,21,24,17,17,28,24,12,24,28,28,24,16,24,36,39,43,52,52,49,40,48,40,28,49,56,44,44,27,15,28,27,20,11,12,14,18,20,17,21,21,8,8,8,8,15,8,8,33,25,24,19,18,18,27,50,40,10,28,34,17,5,8,12,13,16,21,33,32,22,31,51,56,51,51,36,34,36,36,42,45,49,37,56,54,37,37,37,27,43,33,17,0,12,22,18,3,8,15,8,12,13,13,15,12,12,5,10,17,25,24,20,15,21,36,36,35,54,59,62,49,50,56,51,50,61,54,36,33,41,41,32,48,69,99,96,82,72,43,46,29,32,24,17,13,16,15,12,0,0,0,5,5,9,3,0,0,0,0,8,5,18,21,10,0,0,0,0,0,12,9,14,13,3,0,0,0,12,12,0,25,26,8,9,9,32,37,12,16,12,13,16,17,19,19,21,27,40,38,40,44,35,39,50,46,54,55,51,58,55,52,66,66,57,50,51,57,55,60,72,69,59,66,75,81,64,56,52,52,48,54,52,52,56,63,74,82,80,85,69,60,47,47,61,66,40,41,32,38,34,30,18,13,17,16,13,5,3,13,10,5,0,5,15,21,22,22,30,35,34,38,32,26,33,37,40,20,5,8,17,23,25,28,27,34,32,26,37,37,38,38,36,40,38,32,27,24,31,28,31,20,25,20,16,27,28,17,24,16,13,16,15,12,13,20,20,17,8,18,17,8,16,25,8,13,11,13,5,5,36,45,36,40,39,47,48,60,59,72,79,71,63,51,36,13,25,79,100,100,100,100,100,100,100,100,100,100,100,100,15,20,18,31,36,21,13,20,25,17,18,8,13,30,48,34,65,12,16,19,32,3,5,8,8,10,13,8,17,26,29,18,16,8,12,20,20,17,19,23,5,13,13,47,50,92,98,82,100,100,100,53,48,54,52,52,29,41,48,48,61,46,23,20,24,26,30,27,60,100,100,100,99,100,100,100,54,24,36,41,63,92,32,46,100,100,61,41,100,76,87,100,42,99,88,18,55,68,61,96,100,100,100,100,100,0,0,0,0,0,0,0,0,0,0,0,0,0,0,0,0,0,0,0,0,0,0,0,0,0,0,0,0,0,0,0,0,0,0,0,0,0,0,0,0,0,0,0,0,0,0,0,0,0,0,0,0,0,0,0,0,0,0,0,0,0,0,0,0,0,0,0,0,0,0,0,0,0,0,0,0,0,0,0
0,100,100,73,85,55,55,56,29,22,14,13,64,57,36,41,29,29,18,16,28,37,21,5,13,40,51,46,35,58,81,76,75,52,29,26,54,50,26,13,7,13,13,12,0,0,8,13,3,8,12,15,8,5,3,5,5,8,15,8,12,12,0,0,0,12,13,10,13,8,8,10,13,10,17,10,5,8,13,8,5,8,10,17,9,18,12,20,13,13,0,9,16,12,5,10,12,13,16,17,15,16,25,12,13,12,12,0,12,9,9,14,27,22,29,43,48,22,25,28,32,37,44,47,53,36,43,35,24,44,52,40,27,33,37,37,20,4,25,27,29,17,5,13,18,13,13,14,16,15,12,8,13,16,15,14,12,13,8,12,32,32,22,21,17,24,31,24,20,35,45,43,73,13,100,100,75,5,0,5,8,8,14,67,48,51,64,80,57,100,21,62,5,100,100,100,100,65,42,50,80,100,100,100,100,100,66,90,100,100,94,76,65,59,40,29,18,20,29,18,5,0,8,13,19,23,16,21,20,15,34,61,65,76,71,44,42,13,21,33,50,50,43,25,33,29,33,9,10,5,15,12,12,7,16,41,89,55,30,20,22,18,13,64,84,74,30,18,3,31,57,62,48,45,16,15,18,13,12,21,20,12,24,35,51,60,68,84,69,54,48,45,52,58,55,55,56,31,37,33,24,16,8,3,5,12,11,8,13,20,16,16,12,20,22,19,17,13,21,14,12,20,20,8,21,24,19,17,24,31,26,26,22,17,33,43,47,53,48,40,49,43,40,32,45,47,43,44,32,20,28,27,16,8,8,13,8,12,24,31,17,17,13,8,18,12,13,10,17,16,8,13,9,32,32,42,38,18,23,25,17,12,15,12,16,29,32,38,35,49,56,68,61,82,62,34,19,26,27,45,53,59,65,69,43,27,28,24,34,40,39,18,17,26,17,17,8,12,12,0,17,17,10,5,12,12,10,13,17,26,34,24,19,32,45,41,49,52,50,50,44,59,69,54,65,59,51,33,35,35,33,21,20,49,69,76,42,50,37,33,29,24,20,8,17,18,12,13,5,0,0,3,9,5,4,3,5,0,5,10,10,13,26,17,0,0,0,0,5,13,10,12,20,24,17,10,5,13,8,0,25,25,10,8,8,24,29,16,16,17,18,15,21,22,24,19,24,27,36,40,40,38,44,52,47,52,57,62,58,63,56,63,71,72,58,59,78,63,67,70,78,80,77,72,74,76,63,57,60,55,64,60,55,55,55,65,67,92,100,99,92,80,80,79,80,80,85,62,73,55,47,37,17,5,0,0,0,5,13,8,0,0,0,5,18,19,21,27,27,26,30,27,35,33,28,32,37,34,21,13,13,29,28,31,26,36,34,34,36,35,35,39,40,33,27,39,34,21,26,39,33,20,17,22,28,30,16,24,17,16,15,15,16,12,11,16,16,16,13,16,12,17,16,11,13,3,13,8,10,22,31,39,39,40,52,51,51,55,62,74,75,63,62,31,13,33,69,100,100,100,100,100,100,47,36,100,100,100,100,21,25,25,35,25,26,10,20,13,20,17,8,10,36,28,24,20,21,25,45,16,5,8,9,8,5,12,13,13,20,26,25,18,8,12,16,5,8,28,24,13,20,28,28,21,44,75,80,67,100,100,65,43,36,60,65,46,44,39,42,80,62,54,33,45,69,68,57,78,100,100,100,97,100,100,100,60,28,31,45,67,60,66,46,100,100,100,20,58,95,68,31,100,100,100,45,54,41,67,86,60,93,100,100,100,0,0,0,0,0,0,0,0,0,0,0,0,0,0,0,0,0,0,0,0,0,0,0,0,0,0,0,0,0,0,0,0,0,0,0,0,0,0,0,0,0,0,0,0,0,0,0,0,0,0,0,0,0,0,0,0,0,0,0,0,0,0,0,0,0,0,0,0,0,0,0,0,0,0,0,0,0,0,0
0,100,100,91,35,32,44,51,44,50,37,30,48,100,39,55,61,42,36,35,39,28,20,5,20,24,40,37,25,51,66,72,55,40,24,30,53,49,26,12,5,10,13,8,0,0,12,12,3,5,5,13,8,8,13,8,0,0,12,12,13,8,3,5,0,12,13,5,8,13,10,5,10,13,9,12,0,5,3,5,8,8,8,13,17,14,21,17,16,12,12,8,12,12,0,5,3,8,14,18,13,22,22,11,11,14,18,5,8,13,8,22,24,16,27,40,24,12,20,21,40,48,40,35,38,42,51,49,23,40,43,35,27,34,38,37,25,13,24,34,25,12,13,17,17,17,22,32,28,30,3,8,8,7,18,25,25,17,25,22,24,23,13,13,12,24,37,45,31,33,37,27,40,80,100,100,36,12,0,0,0,0,28,91,81,60,93,75,100,27,73,67,100,100,100,100,100,45,38,38,77,100,100,100,100,73,97,93,100,100,100,74,54,43,22,13,12,17,20,17,8,0,3,12,23,23,20,31,21,13,38,73,86,88,74,73,63,18,39,31,47,84,54,62,55,50,51,29,17,13,12,8,15,13,13,47,47,43,16,17,23,23,17,46,66,75,63,73,49,75,76,56,32,28,16,17,18,14,8,17,24,20,24,31,44,60,67,75,70,45,56,60,56,47,47,59,52,36,32,23,33,30,16,13,13,15,12,10,13,10,12,15,8,8,17,18,8,18,21,18,13,28,27,18,24,22,25,25,22,26,30,20,20,17,20,39,63,64,51,40,47,47,43,31,41,43,47,45,32,28,40,31,18,5,13,16,14,17,37,38,8,8,8,26,24,18,7,8,13,8,21,8,20,31,33,33,14,27,35,34,19,20,11,13,17,20,22,39,34,51,63,65,55,99,91,41,26,10,26,29,38,51,64,60,49,42,27,24,33,31,14,31,30,27,32,26,5,12,12,0,20,25,5,5,12,16,13,11,15,17,24,37,25,40,46,41,47,52,44,55,47,65,67,63,55,56,44,37,33,45,38,24,28,31,35,41,41,46,38,33,35,15,5,10,15,17,0,10,10,5,0,5,3,5,8,13,10,5,3,12,8,10,26,17,0,0,0,0,8,13,5,7,26,26,30,17,8,13,5,10,26,13,13,13,12,17,24,25,18,16,17,20,20,17,22,24,25,32,40,47,37,40,40,48,47,45,57,63,55,53,59,52,70,83,75,68,75,71,76,84,76,77,82,77,60,59,61,62,60,60,65,57,53,48,53,51,68,80,87,100,100,100,94,90,96,99,90,84,72,63,60,63,62,40,18,5,0,5,10,20,8,5,0,0,12,11,13,19,29,36,35,31,33,34,26,31,38,38,32,30,17,17,24,25,29,33,34,28,35,33,36,38,43,44,44,28,31,27,30,26,41,36,19,20,29,27,14,29,24,17,11,16,16,12,16,12,21,25,17,11,16,13,12,15,12,8,15,8,21,22,34,44,43,44,40,47,56,59,67,75,71,66,73,34,5,50,16,100,100,100,100,100,100,47,48,100,100,100,100,13,22,27,19,35,22,8,12,13,8,16,17,8,12,3,0,0,17,28,32,20,0,12,9,13,8,13,8,0,0,8,15,16,8,13,12,10,8,21,21,20,20,21,18,14,13,13,42,43,31,74,69,49,25,52,55,56,40,40,34,36,65,61,45,31,66,69,51,36,40,83,78,100,100,100,100,31,34,30,30,33,31,32,38,87,100,94,22,53,51,64,44,72,96,100,21,34,64,43,29,100,50,100,100,100,100,0,0,0,0,0,0,0,0,0,0,0,0,0,0,0,0,0,0,0,0,0,0,0,0,0,0,0,0,0,0,0,0,0,0,0,0,0,0,0,0,0,0,0,0,0,0,0,0,0,0,0,0,0,0,0,0,0,0,0,0,0,0,0,0,0,0,0,0,0,0,0,0,0,0,0,0,0,0
0,100,100,100,40,24,52,14,46,59,26,38,94,44,78,60,54,46,48,49,45,40,33,22,29,20,36,41,36,52,53,56,48,35,24,16,33,54,22,8,0,5,3,5,0,5,13,12,9,3,8,13,8,15,9,12,3,5,12,16,13,8,13,8,0,8,10,9,3,8,12,3,5,3,13,12,0,0,0,8,15,15,8,17,17,15,10,12,13,12,12,13,15,8,0,0,0,8,13,10,8,20,17,13,8,18,14,13,8,8,8,26,19,12,21,43,47,21,26,22,46,50,48,41,39,54,64,57,32,40,40,35,36,39,31,34,27,16,24,17,9,9,17,10,5,8,22,36,29,29,17,15,13,9,13,12,13,16,20,14,18,8,10,8,23,27,37,50,35,19,36,53,53,45,100,100,31,12,5,3,8,26,83,100,98,51,79,98,85,100,36,43,89,100,100,100,100,25,13,5,56,86,100,100,100,100,87,89,71,100,85,57,36,34,20,17,8,12,20,16,8,5,10,13,8,20,14,24,20,13,50,92,78,22,46,100,72,45,77,67,78,52,46,80,68,60,56,52,52,26,16,12,9,8,11,16,25,17,19,13,18,21,17,26,50,52,72,67,55,80,79,53,34,19,7,18,8,17,20,26,25,20,29,32,50,64,63,80,70,45,57,55,52,59,57,58,56,31,32,20,22,32,24,13,11,11,13,13,3,5,0,8,13,5,18,14,13,8,16,19,25,34,34,13,22,21,19,24,24,28,20,18,18,17,16,28,48,64,68,43,57,60,44,36,31,41,50,48,44,43,38,33,9,12,13,8,13,16,37,33,0,0,0,20,32,26,3,12,13,8,17,18,36,41,36,38,34,35,32,37,36,37,19,20,12,15,41,50,39,41,51,73,67,92,83,40,0,19,29,17,24,37,50,49,36,37,39,26,34,35,29,34,21,25,26,22,17,11,17,10,28,13,13,13,13,20,16,13,8,23,41,35,33,40,41,33,54,55,52,62,57,52,60,55,47,53,42,33,38,41,45,29,38,33,39,34,36,43,37,31,37,8,8,13,3,3,5,8,12,3,0,0,0,5,13,9,12,3,5,10,10,18,26,10,0,0,0,0,12,12,0,10,21,21,17,26,12,12,0,17,26,13,13,13,12,12,16,19,21,18,16,15,22,22,20,25,27,27,37,38,40,43,49,55,64,67,49,38,45,50,60,68,69,69,64,68,67,67,59,67,76,79,93,95,80,51,49,55,42,35,40,50,47,53,51,73,73,58,69,93,96,95,91,96,99,76,80,77,70,60,59,79,78,77,66,52,33,29,20,22,17,15,5,0,8,18,21,15,24,39,34,31,36,37,31,28,40,30,28,34,27,29,16,21,32,36,35,27,32,35,34,39,31,52,45,33,21,30,29,30,40,30,31,33,15,20,20,27,37,17,8,21,24,17,12,12,17,20,17,16,15,12,13,16,16,15,8,5,15,24,24,36,43,47,36,54,64,58,66,79,67,72,69,38,5,41,63,100,100,100,100,100,100,100,43,28,8,8,15,8,25,24,12,25,24,13,8,13,8,25,21,5,17,8,0,0,16,41,16,0,0,12,13,13,5,12,8,0,0,8,15,13,12,11,8,8,8,23,13,3,15,9,18,13,14,8,15,29,22,41,81,57,42,37,50,49,48,33,42,38,53,47,43,50,34,21,27,72,70,60,43,45,67,63,59,30,24,36,39,35,27,26,35,100,100,100,72,64,78,66,30,61,40,60,61,79,70,29,36,56,88,71,100,100,100,100,0,0,0,0,0,0,0,0,0,0,0,0,0,0,0,0,0,0,0,0,0,0,0,0,0,0,0,0,0,0,0,0,0,0,0,0,0,0,0,0,0,0,0,0,0,0,0,0,0,0,0,0,0,0,0,0,0,0,0,0,0,0,0,0,0,0,0,0,0,0,0,0,0,0,0,0,0
100,100,100,50,49,24,43,85,45,58,88,42,44,65,29,43,36,34,41,46,52,53,37,23,35,32,42,33,58,47,48,56,27,39,22,13,36,44,20,5,0,0,0,0,0,8,13,3,3,5,8,13,13,8,13,12,13,13,15,16,12,8,13,8,0,5,5,8,8,3,13,10,5,0,8,13,5,0,0,12,13,13,8,13,8,8,11,12,11,8,8,8,8,5,3,5,5,5,5,5,8,12,12,16,12,13,7,8,15,8,8,20,26,8,23,40,49,53,43,22,45,44,39,38,46,47,64,67,31,43,39,50,48,31,24,32,24,19,21,15,13,9,13,8,0,21,29,17,0,13,29,29,25,16,3,5,3,13,13,5,13,8,14,3,29,42,42,39,28,17,42,90,75,17,100,100,38,15,8,13,37,60,97,95,65,26,43,56,100,100,100,100,66,100,100,100,100,24,18,5,42,95,100,100,100,20,12,28,20,38,24,17,13,17,20,22,12,23,27,19,8,8,10,5,5,16,34,31,22,18,47,86,86,73,69,96,76,63,54,62,58,60,75,60,61,60,59,65,42,24,24,26,18,7,13,12,13,13,28,17,16,21,13,14,20,24,42,36,47,64,66,47,24,16,12,20,19,19,25,20,10,12,36,45,38,39,72,83,64,36,44,49,57,61,73,67,56,31,32,25,12,42,28,12,15,12,17,10,8,12,12,13,13,3,8,13,8,13,13,17,15,24,16,16,15,16,34,26,27,16,21,16,16,16,16,23,37,64,55,51,69,68,48,33,31,34,62,59,51,50,29,13,13,12,16,10,17,11,29,29,0,0,0,17,37,20,8,5,17,8,5,8,41,52,41,31,48,42,37,35,37,33,20,16,31,36,46,54,44,32,38,64,80,99,83,45,25,25,29,27,21,26,28,17,0,32,32,37,42,20,19,17,11,18,10,17,10,18,22,29,23,13,13,9,25,24,16,5,18,38,51,51,51,40,40,49,57,57,55,62,54,47,63,53,52,61,48,33,40,42,20,24,37,38,35,36,34,28,23,37,23,10,20,11,8,8,8,13,10,5,0,0,0,8,13,8,13,5,0,5,13,21,25,0,0,0,0,0,12,12,0,0,10,26,17,26,20,13,5,25,25,5,13,9,12,8,15,21,19,17,15,15,22,19,17,31,25,25,34,38,40,50,52,55,74,65,65,67,64,63,66,74,74,71,52,59,67,63,60,63,74,92,98,98,99,88,74,54,76,77,85,73,74,60,64,55,61,43,52,67,64,72,71,76,68,71,51,61,74,67,51,61,74,78,79,72,51,48,33,24,18,13,10,5,3,16,20,16,15,29,31,30,35,33,31,22,29,24,27,27,32,27,19,16,32,33,32,38,36,41,31,38,42,36,44,39,34,27,24,31,36,34,29,33,30,13,21,33,35,18,17,16,29,25,12,12,18,22,22,17,16,16,13,12,15,12,3,8,25,19,28,35,48,47,40,32,55,58,76,75,68,55,61,50,16,22,49,100,100,100,100,100,100,100,40,37,26,10,10,13,29,28,12,25,20,12,12,12,12,17,28,20,21,15,5,5,23,20,20,0,5,13,29,24,40,13,3,5,8,15,8,8,17,14,7,4,10,17,17,13,9,23,15,10,8,4,3,9,26,20,46,83,73,56,54,47,46,37,38,48,46,46,47,58,68,17,67,38,100,40,29,32,25,98,43,20,30,30,40,43,49,34,40,100,100,100,79,100,81,100,52,32,38,44,100,85,73,45,8,45,19,17,10,100,100,100,100,100,0,0,0,0,0,0,0,0,0,0,0,0,0,0,0,0,0,0,0,0,0,0,0,0,0,0,0,0,0,0,0,0,0,0,0,0,0,0,0,0,0,0,0,0,0,0,0,0,0,0,0,0,0,0,0,0,0,0,0,0,0,0,0,0,0,0,0,0,0,0,0,0,0,0,0
100,100,100,30,26,46,29,52,51,49,58,42,53,63,78,70,24,20,20,30,61,66,52,44,49,35,24,33,43,45,36,46,38,39,21,20,22,41,42,10,0,5,8,8,5,12,12,0,0,0,8,0,8,8,13,13,10,8,8,12,12,5,3,5,0,0,5,13,8,5,8,15,8,0,5,10,13,12,12,15,4,13,9,13,3,3,12,9,12,3,5,3,5,3,9,3,8,13,10,5,12,16,13,12,16,12,8,0,12,12,10,19,12,18,16,12,47,46,29,17,40,43,27,37,52,47,61,57,43,48,52,57,56,35,20,24,23,33,21,9,13,10,7,3,5,30,35,10,0,8,37,32,26,29,16,18,13,4,10,8,10,13,16,19,34,43,26,25,25,18,67,58,67,29,100,100,50,8,14,41,74,82,87,64,29,12,11,17,8,8,100,85,91,100,100,100,51,43,42,35,38,95,100,100,100,21,11,21,13,22,17,8,8,22,25,23,25,26,29,13,22,18,3,0,0,8,29,20,8,7,8,49,65,65,63,50,29,52,32,92,81,86,70,45,43,53,67,55,36,13,18,15,17,16,12,13,8,10,31,18,17,13,12,9,9,12,13,20,34,40,36,13,8,16,16,13,22,18,5,0,0,17,45,40,23,45,76,83,65,27,54,51,47,55,62,67,56,31,32,20,25,31,30,11,12,8,17,8,15,12,12,12,8,5,5,13,8,5,8,15,5,16,21,11,15,19,29,29,25,13,21,21,7,13,25,23,33,57,57,47,55,62,57,45,30,36,47,61,67,69,35,17,12,14,8,26,24,12,24,25,0,0,5,13,32,34,3,5,17,8,8,8,46,54,42,47,43,33,32,15,4,10,14,17,49,54,49,33,26,47,22,50,77,84,80,45,20,24,27,24,24,14,5,17,18,14,8,30,27,26,25,20,15,12,15,8,5,8,29,32,20,3,13,21,29,38,25,29,32,57,65,58,44,46,59,55,56,51,62,50,49,60,63,54,55,50,36,32,33,25,13,22,37,34,35,30,26,24,24,33,35,18,11,20,15,5,13,9,5,5,0,0,0,12,12,8,13,5,0,0,12,14,26,10,0,0,0,0,8,13,8,8,8,24,25,17,31,22,20,17,30,17,9,9,10,12,12,23,23,16,16,12,18,19,21,16,24,25,31,40,48,65,55,65,56,58,66,72,63,61,63,67,77,76,60,55,67,63,66,55,55,76,90,99,94,89,75,70,79,87,95,100,99,99,67,64,56,65,72,55,56,71,76,72,81,86,91,77,68,66,44,44,55,64,76,82,67,64,64,51,47,15,11,10,8,13,14,8,12,16,19,29,32,22,31,22,20,16,8,18,29,27,15,8,23,32,33,31,42,37,34,44,45,40,36,29,29,37,34,16,28,38,41,38,32,20,25,29,26,21,24,29,38,34,12,16,17,24,19,18,12,20,13,20,17,12,9,12,16,19,33,45,44,44,35,35,61,59,67,71,63,51,53,43,37,20,62,100,100,100,100,100,100,100,28,34,29,12,15,14,26,24,16,16,17,12,12,8,13,10,13,20,21,17,8,8,13,8,5,8,13,10,24,52,24,8,5,8,15,8,11,12,21,21,12,17,26,29,17,14,20,23,14,12,0,3,9,3,25,24,36,46,66,71,50,48,42,30,36,51,43,52,84,51,85,100,44,100,47,93,74,100,100,100,53,17,13,10,14,38,48,40,44,65,94,92,100,76,59,100,96,56,20,71,100,100,73,13,54,37,11,9,13,38,100,100,100,100,100,0,0,0,0,0,0,0,0,0,0,0,0,0,0,0,0,0,0,0,0,0,0,0,0,0,0,0,0,0,0,0,0,0,0,0,0,0,0,0,0,0,0,0,0,0,0,0,0,0,0,0,0,0,0,0,0,0,0,0,0,0,0,0,0,0,0,0,0,0,0,0,0,0,0
100,100,100,21,28,40,78,48,48,57,62,49,37,65,88,78,24,20,26,16,61,66,54,53,56,9,14,44,50,38,17,36,56,49,23,16,33,39,38,20,8,13,13,13,10,8,13,5,0,0,8,13,13,20,14,10,5,5,8,15,8,0,0,0,0,0,0,12,12,0,0,12,12,0,0,5,7,16,12,8,13,9,15,8,8,8,13,8,13,5,3,9,3,5,3,5,12,13,13,8,12,15,12,12,12,13,8,5,18,13,17,20,10,15,16,12,15,26,25,20,36,40,34,28,48,47,56,60,51,47,51,51,40,16,24,24,24,22,21,17,11,10,9,3,8,24,29,5,0,18,31,25,41,32,21,17,15,17,21,20,13,13,12,23,40,38,41,32,19,8,39,57,78,100,98,100,64,20,40,74,82,77,67,44,21,12,18,13,10,13,13,20,67,100,100,100,100,62,52,62,58,98,100,100,73,20,22,24,21,17,13,13,26,29,14,12,20,19,13,5,21,28,8,5,17,26,18,7,10,12,13,17,41,32,34,34,67,29,79,100,100,59,22,24,35,47,73,68,37,12,20,13,25,24,17,13,5,18,27,22,16,12,8,13,8,13,8,13,19,17,5,13,12,18,13,18,17,8,5,3,3,21,31,45,28,54,67,75,64,27,53,55,47,55,63,67,56,40,31,36,33,22,12,16,16,13,10,13,8,0,0,0,0,0,5,13,8,8,12,15,10,18,17,20,16,28,28,16,17,16,16,17,5,10,25,33,27,44,52,60,51,54,59,37,32,31,42,52,67,58,48,35,18,3,9,13,27,14,28,25,3,5,3,12,24,30,20,16,22,12,0,9,35,53,39,28,29,24,29,9,15,17,16,21,26,43,47,46,53,56,51,48,56,47,44,23,13,21,24,19,17,12,13,26,26,8,13,16,13,15,19,22,16,15,8,0,5,15,19,24,25,7,17,29,35,41,46,45,45,58,65,51,46,62,60,51,41,54,59,57,47,56,60,41,49,50,35,24,33,20,14,40,38,27,26,27,21,29,31,39,30,5,12,14,15,8,12,0,9,3,0,0,0,12,14,8,9,13,12,12,15,14,25,7,0,0,0,0,5,10,12,13,15,20,30,17,17,35,21,13,17,30,17,8,10,12,15,17,16,12,13,13,12,17,22,22,27,31,32,48,55,60,60,60,56,54,50,55,64,61,59,66,73,71,64,55,58,63,66,76,70,85,88,80,94,79,70,77,88,100,90,93,100,100,86,87,83,74,83,71,71,82,67,66,79,98,100,97,87,95,99,86,67,70,76,72,67,73,76,78,87,49,29,16,11,11,13,8,12,11,17,22,29,32,24,27,34,29,23,12,24,33,31,21,17,24,34,29,22,26,29,40,43,44,40,29,20,21,24,29,33,43,51,37,27,19,22,26,29,15,19,38,44,27,17,20,19,20,11,12,13,20,25,13,18,8,0,11,15,24,32,40,44,42,39,41,56,64,63,80,68,56,40,24,54,61,83,100,100,100,100,100,67,100,29,29,29,21,16,21,19,17,20,16,8,12,13,8,13,8,8,13,13,16,12,8,13,8,8,15,8,31,33,26,28,0,5,13,8,3,12,13,15,13,8,17,20,35,30,12,16,13,13,8,0,5,3,5,17,30,24,20,14,37,57,69,71,46,45,31,31,47,57,80,100,91,100,80,76,100,100,100,100,100,28,25,33,29,36,36,42,43,45,38,24,66,55,60,100,88,100,42,54,90,100,51,62,24,37,40,46,20,33,3,26,24,100,100,100,100,100,0,0,0,0,0,0,0,0,0,0,0,0,0,0,0,0,0,0,0,0,0,0,0,0,0,0,0,0,0,0,0,0,0,0,0,0,0,0,0,0,0,0,0,0,0,0,0,0,0,0,0,0,0,0,0,0,0,0,0,0,0,0,0,0,0,0,0,0,0,0,0,0
100,100,100,18,29,50,49,50,39,100,100,72,53,72,100,85,22,10,21,24,50,64,48,46,40,16,35,52,50,41,21,36,55,49,38,33,34,41,42,24,15,12,7,8,13,18,13,3,0,0,12,13,7,14,15,5,0,3,13,8,8,0,0,0,0,0,0,12,12,0,0,12,12,5,3,5,8,13,8,5,13,8,13,5,13,13,16,9,12,0,8,0,8,0,0,0,12,12,12,12,12,15,12,12,12,12,12,10,14,14,22,27,20,11,3,18,16,21,34,32,29,32,28,45,57,60,60,52,47,51,51,47,36,20,24,24,16,17,19,13,10,9,8,5,8,17,24,15,5,20,37,17,32,29,12,20,24,26,25,25,31,22,10,13,21,27,35,31,24,12,23,22,45,90,100,100,100,62,72,91,82,63,47,15,0,0,5,10,33,40,53,25,76,95,100,100,100,86,50,60,65,100,100,100,57,28,29,41,17,13,18,19,27,30,16,12,12,8,5,5,20,27,33,22,11,18,14,12,13,8,8,12,13,17,12,39,47,79,100,62,20,17,17,17,15,33,52,59,49,19,12,15,29,27,22,17,11,16,20,17,17,8,7,12,8,10,12,10,12,13,8,8,22,21,5,13,15,5,8,13,11,16,28,41,35,53,60,67,64,36,44,52,47,55,64,67,66,40,44,45,38,21,17,11,16,13,4,3,5,5,3,5,0,0,8,13,8,15,12,8,5,12,15,19,25,20,29,18,22,25,22,18,5,8,29,28,32,35,52,60,61,43,47,43,32,31,36,52,55,48,47,32,20,13,8,13,26,28,29,13,9,3,8,12,17,17,25,39,21,13,8,5,26,40,29,10,8,22,22,13,17,18,13,10,24,31,29,45,49,38,36,32,32,20,11,18,22,25,13,13,17,19,19,17,23,19,9,16,13,5,18,22,15,16,12,12,13,14,18,16,20,20,16,27,38,43,43,44,46,47,45,40,50,55,51,38,44,49,63,60,51,52,45,42,41,33,24,28,24,20,26,31,34,20,22,29,34,36,36,31,21,8,15,8,22,12,13,8,3,5,0,0,0,12,14,26,17,8,12,12,8,17,26,10,0,0,0,0,0,5,3,5,8,16,20,27,26,35,21,8,0,17,26,9,13,5,12,12,8,17,17,20,24,24,27,20,29,37,44,44,48,48,47,52,48,60,60,53,58,61,65,61,61,58,56,56,60,73,75,69,78,90,88,75,70,78,85,100,100,100,100,97,93,94,86,96,83,78,98,84,80,69,71,74,80,84,88,89,92,96,100,100,90,84,82,71,49,54,68,91,97,83,62,45,27,21,8,5,12,16,13,11,24,34,35,33,33,35,32,21,19,25,19,24,29,26,22,26,24,32,33,36,40,45,44,32,30,31,24,31,53,47,48,45,21,22,22,34,28,21,10,22,37,37,18,22,20,16,20,14,10,20,20,17,8,10,13,16,15,32,40,40,43,58,45,36,60,51,69,71,63,56,46,18,58,100,100,100,100,100,100,100,100,100,78,100,26,17,18,24,24,18,16,25,10,12,8,9,16,12,12,16,13,12,13,5,5,5,12,12,0,23,60,29,10,8,10,10,5,8,12,16,12,0,5,8,15,8,8,13,10,10,10,5,5,10,17,17,19,10,26,26,27,27,41,84,71,60,62,49,48,53,34,38,40,44,43,70,100,100,100,100,95,100,41,36,53,56,47,43,40,47,47,47,43,79,68,74,80,79,100,100,100,39,29,100,78,100,52,80,48,98,60,53,14,13,12,100,100,100,100,100,100,0,0,0,0,0,0,0,0,0,0,0,0,0,0,0,0,0,0,0,0,0,0,0,0,0,0,0,0,0,0,0,0,0,0,0,0,0,0,0,0,0,0,0,0,0,0,0,0,0,0,0,0,0,0,0,0,0,0,0,0,0,0,0,0,0,0,0,0,0,0
0,100,100,100,18,22,33,27,79,63,100,100,100,73,100,100,31,19,24,43,43,49,70,61,33,32,48,49,46,45,17,30,40,44,54,54,26,24,27,19,19,17,16,20,17,14,7,5,0,0,12,12,8,13,5,0,0,5,8,15,10,8,8,5,5,8,8,12,12,0,0,8,13,5,9,3,12,9,12,3,12,9,13,8,8,8,7,13,8,5,10,13,8,5,3,5,8,15,15,8,13,16,12,12,12,12,16,13,13,9,23,38,20,18,16,25,13,21,38,37,34,20,27,37,45,60,59,52,35,56,68,56,36,29,16,24,20,18,13,13,3,21,8,5,3,18,22,21,15,21,22,31,21,17,19,24,29,31,8,5,16,23,18,16,16,18,18,19,26,16,13,15,24,44,76,100,100,100,100,87,73,48,17,8,5,0,5,5,35,87,54,63,46,39,100,94,100,100,72,48,40,100,100,100,86,30,38,32,8,12,16,24,21,17,8,0,0,3,9,13,17,34,30,35,16,12,7,12,13,8,8,5,8,20,23,60,75,100,95,42,28,24,27,8,13,34,44,51,40,12,10,16,24,29,12,22,24,18,7,5,17,13,13,13,13,12,12,8,13,4,15,15,24,20,13,10,5,0,8,13,16,15,24,31,39,51,55,55,51,40,44,43,65,54,59,58,52,44,40,36,27,24,14,14,18,11,13,8,5,3,9,8,3,5,12,12,12,12,0,5,8,13,20,16,19,19,22,19,19,24,22,19,13,8,16,24,40,35,48,52,54,60,61,64,47,30,38,55,50,43,49,32,14,13,8,10,36,39,32,13,3,5,8,13,3,8,13,28,23,13,5,5,15,22,16,16,14,21,25,18,10,16,20,21,19,11,19,28,20,23,26,35,28,18,13,16,22,10,13,13,18,21,21,20,14,19,13,13,13,12,13,12,15,15,15,15,16,20,16,28,29,22,25,37,40,35,45,40,31,41,41,60,62,43,37,46,45,47,61,60,46,49,45,39,26,30,34,26,22,30,34,27,21,29,26,34,32,27,28,24,16,15,8,18,13,12,12,0,0,0,5,8,12,15,21,19,30,25,25,17,17,26,17,0,0,0,0,0,0,0,0,0,5,8,15,13,16,22,18,8,0,17,25,8,10,13,15,8,8,21,12,17,21,26,27,20,19,32,36,28,24,36,39,50,37,49,61,57,58,53,62,75,68,58,69,56,55,55,70,75,71,86,80,72,76,77,94,90,97,100,100,100,100,100,87,77,67,75,72,85,78,75,84,93,80,74,84,88,81,86,92,100,98,95,91,96,94,84,60,74,93,92,90,67,42,40,23,10,12,12,8,13,11,23,24,36,35,33,35,41,54,29,26,16,30,29,20,19,22,36,37,37,44,40,30,35,33,30,20,25,56,52,49,46,30,23,24,31,36,27,16,24,31,32,16,16,17,20,29,18,5,21,25,18,11,10,10,20,19,33,39,40,40,49,44,40,50,61,56,67,70,60,49,20,51,100,100,100,100,100,99,100,100,100,100,100,24,19,15,20,29,21,17,15,16,19,21,3,17,13,20,17,8,12,8,9,3,0,12,13,3,36,22,22,12,25,17,12,17,17,8,12,12,0,3,13,10,5,5,3,8,13,5,9,3,17,30,26,25,26,17,13,15,28,19,45,55,66,88,85,74,67,36,28,35,46,46,49,100,100,100,100,100,100,43,43,52,52,48,40,48,49,55,49,58,100,100,100,36,100,62,100,60,73,65,100,100,100,100,79,51,100,97,40,25,24,26,29,25,100,100,100,100,0,0,0,0,0,0,0,0,0,0,0,0,0,0,0,0,0,0,0,0,0,0,0,0,0,0,0,0,0,0,0,0,0,0,0,0,0,0,0,0,0,0,0,0,0,0,0,0,0,0,0,0,0,0,0,0,0,0,0,0,0,0,0,0,0,0,0,0,0,0
0,100,100,100,8,16,19,32,44,66,51,100,100,61,94,96,43,40,30,45,60,51,63,59,47,57,69,53,40,40,29,27,42,33,60,49,17,12,18,21,21,18,17,17,12,14,18,12,12,12,15,8,8,13,5,0,0,0,0,8,13,13,15,8,8,14,13,16,12,0,0,5,13,9,5,10,13,9,12,5,10,13,15,8,5,3,5,8,8,7,13,13,12,8,13,10,4,8,8,11,11,18,11,15,8,8,16,20,12,9,25,27,26,32,24,19,16,30,38,28,20,25,35,43,43,51,64,53,39,61,68,52,37,30,17,28,24,17,20,8,13,17,18,8,8,17,19,21,21,17,12,13,24,29,26,18,33,24,13,9,21,3,12,13,17,20,25,26,18,8,8,13,13,12,21,63,99,100,80,75,48,32,28,17,15,3,46,86,100,82,68,17,85,70,96,100,61,89,74,50,41,100,100,100,85,14,24,29,3,3,20,29,18,13,13,8,8,8,12,21,30,19,19,20,29,14,3,8,13,13,15,8,3,22,64,83,100,86,80,49,28,34,30,29,20,36,38,45,36,15,16,15,16,13,5,18,34,17,7,8,25,19,16,13,8,12,15,8,13,13,12,12,28,30,15,5,0,0,5,8,13,16,28,35,48,51,55,56,51,44,53,51,47,55,59,55,47,43,36,24,29,24,11,17,13,11,8,15,10,10,5,12,13,8,8,13,12,12,8,13,13,26,24,13,16,21,27,27,18,22,25,28,16,13,11,19,36,40,40,50,50,49,57,57,49,33,41,52,64,49,52,33,17,16,12,7,32,45,29,0,0,5,18,11,8,8,34,33,15,10,13,5,20,21,7,15,16,20,25,17,17,20,12,33,33,10,23,26,9,12,33,29,15,20,3,20,25,12,16,20,19,16,20,25,10,22,26,8,19,29,18,13,13,16,15,20,24,34,31,34,34,37,35,39,40,48,43,40,35,38,43,43,51,35,43,46,47,48,55,51,39,48,43,38,40,38,32,27,24,26,37,30,26,37,30,26,25,17,20,19,20,12,0,8,15,15,8,0,0,5,10,13,12,8,25,26,17,25,25,26,25,21,10,0,0,0,0,0,0,0,0,0,0,0,12,12,3,8,8,3,0,17,26,10,5,8,8,13,16,12,18,8,13,21,16,29,33,27,28,19,30,30,27,41,47,40,54,61,45,57,61,79,93,62,63,63,62,63,69,65,76,80,92,72,81,80,92,92,100,100,100,100,100,100,91,83,73,76,87,83,74,85,79,77,72,71,82,73,66,68,76,77,79,87,96,100,100,100,83,77,75,88,92,93,94,80,54,36,15,8,0,5,13,12,13,26,32,33,33,55,46,34,29,25,17,33,21,16,24,34,38,42,51,50,41,36,41,40,27,8,36,48,49,46,30,24,34,31,35,29,24,23,32,33,20,15,12,30,24,11,13,22,21,19,13,3,5,22,40,35,38,43,37,47,57,35,60,51,47,59,56,58,45,35,41,100,100,100,100,100,100,100,100,100,100,100,100,76,78,27,29,36,21,18,17,34,20,5,16,25,13,18,5,12,13,3,5,5,13,5,13,21,25,12,17,16,20,12,13,21,12,15,8,0,8,12,3,0,0,0,12,12,5,3,9,17,20,17,10,20,30,25,16,8,22,22,24,55,67,85,86,76,55,58,40,50,42,81,44,100,100,77,100,74,33,31,40,43,48,60,51,53,62,84,65,100,100,100,100,91,52,84,100,84,71,100,87,93,38,20,79,97,73,68,34,38,29,25,26,100,100,100,100,100,0,0,0,0,0,0,0,0,0,0,0,0,0,0,0,0,0,0,0,0,0,0,0,0,0,0,0,0,0,0,0,0,0,0,0,0,0,0,0,0,0,0,0,0,0,0,0,0,0,0,0,0,0,0,0,0,0,0,0,0,0,0,0,0,0,0,0,0,0
0,0,100,100,18,9,8,28,69,58,96,73,100,38,71,83,66,51,40,43,51,47,66,46,41,50,54,40,29,30,27,25,20,27,46,55,29,13,14,24,15,5,5,7,12,18,14,12,12,12,8,5,5,13,8,0,0,0,5,10,5,8,12,12,12,9,13,7,15,8,5,0,12,9,15,13,13,9,12,5,8,8,8,4,10,12,13,13,13,16,12,8,15,13,23,20,10,12,18,19,22,14,15,9,8,8,25,20,13,8,21,22,24,20,18,15,17,28,36,28,17,30,40,44,43,51,47,57,47,51,64,43,33,26,24,28,20,15,12,3,12,8,12,12,13,9,12,15,21,25,11,12,19,30,18,21,32,21,16,21,16,17,13,16,13,0,0,10,21,13,13,16,24,26,12,20,33,37,39,34,37,45,21,22,71,87,78,86,100,100,100,70,82,100,72,55,71,82,66,25,25,99,100,100,91,13,20,16,12,14,18,38,56,26,16,20,9,8,13,21,18,12,7,15,22,15,4,10,13,21,21,5,30,31,79,100,89,51,77,38,19,22,27,25,44,55,56,31,28,15,15,16,13,5,3,24,28,14,17,13,20,34,22,17,3,0,12,9,13,13,8,23,39,30,5,5,3,5,0,8,13,12,28,39,48,48,48,56,60,48,44,51,47,51,59,55,47,43,31,28,28,28,16,13,3,13,8,8,13,13,15,12,13,8,8,12,16,16,15,8,4,25,20,10,13,19,32,31,17,16,24,28,24,17,8,25,34,36,42,47,52,62,44,51,53,52,31,51,52,57,54,46,27,16,8,10,34,41,39,21,20,25,24,22,16,25,41,35,8,12,15,35,37,20,13,8,12,19,22,22,24,25,18,41,41,21,16,5,17,13,41,29,17,16,18,31,26,17,15,20,24,28,29,19,18,30,20,12,26,24,26,17,11,15,16,12,27,29,34,31,32,32,45,61,52,45,40,34,38,38,38,43,51,41,52,49,49,47,46,44,48,44,47,48,42,37,29,24,22,32,34,30,41,47,27,27,19,12,12,24,24,13,5,5,8,8,5,0,0,8,13,5,0,0,25,25,0,0,0,10,7,10,0,0,0,0,0,0,0,0,0,0,0,0,12,12,8,8,5,10,7,26,25,10,17,25,25,28,20,17,18,21,21,20,24,44,61,47,66,65,78,61,67,60,75,69,69,70,77,54,60,91,87,86,85,71,63,59,69,70,74,97,100,100,100,93,88,94,100,100,100,100,100,100,90,78,77,79,91,98,90,77,71,68,59,50,69,65,47,48,63,85,75,82,98,100,100,96,91,91,93,98,94,97,94,97,83,68,12,5,0,0,12,12,3,14,26,29,25,42,35,22,29,24,32,33,22,8,21,29,38,41,52,54,45,43,45,33,32,27,33,37,50,54,30,30,24,29,24,33,26,27,31,34,29,20,16,26,30,20,13,29,25,21,17,13,12,18,39,41,42,45,40,53,54,39,47,51,47,55,56,39,44,31,74,100,100,100,100,100,100,100,100,100,100,100,100,100,100,37,24,30,26,10,17,25,12,3,17,16,16,12,0,8,15,12,8,7,13,10,17,20,17,5,8,5,9,5,13,10,8,8,5,3,5,12,8,0,0,0,12,12,0,0,7,19,17,30,16,13,17,20,17,61,45,76,28,27,13,18,52,60,61,64,60,44,40,46,100,63,45,49,72,89,26,51,49,47,47,60,57,49,72,62,59,65,68,54,63,79,79,83,100,100,100,100,87,56,31,10,59,49,76,8,17,22,13,21,17,13,14,100,100,100,100,100,100,100,0,0,0,0,0,0,0,0,0,0,0,0,0,0,0,0,0,0,0,0,0,0,0,0,0,0,0,0,0,0,0,0,0,0,0,0,0,0,0,0,0,0,0,0,0,0,0,0,0,0,0,0,0,0,0,0,0,0,0,0,0,0,0,0,0
0,0,100,100,100,15,15,31,31,100,93,67,54,44,64,81,67,55,57,41,26,25,31,34,20,16,13,11,22,21,14,13,0,17,30,41,34,17,24,22,8,12,13,13,13,13,14,18,12,8,5,0,0,12,12,0,0,0,8,15,15,8,12,12,8,13,8,5,10,13,3,0,8,13,8,8,0,13,12,8,13,8,0,8,13,8,8,8,13,16,13,4,8,17,23,12,20,12,14,21,23,12,9,0,13,17,29,20,8,13,17,17,11,8,8,13,17,28,36,28,17,26,33,36,39,56,51,47,52,61,60,49,28,28,27,28,20,16,15,8,11,13,15,12,13,13,12,13,21,5,27,19,19,31,29,26,19,21,25,25,19,15,17,26,20,0,0,0,17,26,10,17,25,24,20,16,29,24,28,16,13,24,49,0,62,100,40,100,100,78,100,100,100,64,90,86,83,78,59,32,34,100,100,100,16,20,24,13,35,21,22,63,58,64,69,55,37,17,13,13,18,14,8,5,21,21,7,15,17,25,21,35,40,63,100,100,66,100,100,32,28,24,22,27,61,81,61,26,22,22,17,16,12,8,13,20,32,30,19,15,8,30,41,20,3,0,12,9,17,13,12,22,31,21,0,3,9,3,0,12,12,18,29,40,44,40,60,59,55,52,43,47,56,51,60,59,47,35,31,28,23,28,20,15,8,12,12,5,3,5,12,12,3,5,8,13,13,16,12,0,3,15,21,5,10,18,30,33,25,25,23,24,28,16,10,13,29,29,41,43,62,61,54,50,48,50,50,32,44,52,62,67,56,43,20,8,15,30,49,49,31,24,13,18,17,24,22,22,18,18,38,57,59,37,22,12,15,16,18,20,21,13,20,41,34,23,19,24,36,41,41,34,12,18,11,27,35,18,8,18,25,28,24,12,10,17,16,18,23,13,25,24,20,19,16,25,34,35,33,37,43,50,46,51,57,31,28,35,38,38,38,43,46,51,51,52,39,41,39,58,50,50,41,34,26,27,21,24,24,28,35,32,39,40,24,29,13,10,18,29,20,10,10,5,0,0,0,0,0,8,13,5,0,0,25,25,0,0,0,0,0,0,0,0,0,0,0,0,0,0,0,0,0,0,8,13,10,13,5,7,18,17,25,7,26,19,26,17,10,0,10,7,10,31,46,55,70,64,68,82,80,67,64,74,60,80,75,81,92,75,45,69,74,75,79,71,60,55,68,73,72,94,93,95,100,100,100,100,98,100,100,100,100,100,91,83,84,80,80,92,67,78,76,69,73,77,62,72,67,65,61,81,91,100,100,100,99,94,92,100,98,100,94,87,78,94,100,100,47,18,5,0,12,12,0,8,12,20,25,33,36,34,26,23,23,39,33,17,13,24,40,54,54,60,52,48,40,38,28,28,34,38,43,43,32,39,33,21,30,29,27,32,38,33,29,29,24,28,24,16,21,24,27,18,9,8,9,13,29,31,31,40,46,45,56,51,47,47,47,59,56,35,32,23,45,100,100,100,100,100,100,100,100,100,100,100,100,100,100,66,33,33,20,12,20,28,17,5,12,15,15,12,0,5,8,12,15,16,12,8,16,14,5,15,11,9,8,5,12,8,8,12,13,12,10,13,8,5,3,5,12,12,0,0,10,10,17,15,20,21,10,5,0,48,100,25,65,42,39,12,22,57,100,97,88,59,47,47,8,51,52,54,52,100,55,50,55,43,52,43,46,41,38,49,43,58,79,41,57,66,82,67,88,100,100,85,72,75,59,72,53,45,86,37,38,29,68,64,77,7,5,10,100,100,100,100,100,100,0,0,0,0,0,0,0,0,0,0,0,0,0,0,0,0,0,0,0,0,0,0,0,0,0,0,0,0,0,0,0,0,0,0,0,0,0,0,0,0,0,0,0,0,0,0,0,0,0,0,0,0,0,0,0,0,0,0,0,0,0,0,0,0,0
0,0,100,100,100,13,13,16,13,61,68,18,36,20,48,58,43,40,48,51,12,18,12,38,61,41,30,21,29,16,14,13,13,22,43,52,42,35,27,19,13,12,12,8,8,8,18,14,12,15,10,8,12,15,8,5,3,5,12,13,13,8,12,12,8,0,8,5,10,10,5,3,5,3,5,3,9,5,13,8,13,8,5,13,8,0,0,5,13,12,12,3,0,0,8,13,8,10,11,18,11,8,8,8,8,11,20,17,5,13,9,12,10,10,12,12,26,26,33,33,20,28,27,31,35,47,52,56,52,52,55,43,27,28,27,28,24,13,8,13,13,16,11,13,12,12,12,26,27,27,30,19,13,20,20,19,21,19,25,25,23,19,17,20,26,10,0,0,10,23,22,16,13,13,12,8,9,8,13,5,17,31,13,19,73,86,96,100,100,49,100,100,100,97,94,77,57,68,43,31,43,100,100,100,69,20,31,13,59,83,88,73,79,92,85,78,55,33,20,3,10,23,19,25,23,16,16,16,13,4,23,84,76,100,100,87,34,100,100,20,23,29,43,70,98,87,63,17,19,24,15,12,17,8,13,12,26,16,17,15,34,35,44,31,26,5,12,13,5,14,24,28,20,12,0,5,3,5,0,8,16,20,21,37,40,52,59,64,51,39,52,56,56,51,57,56,57,36,23,28,23,24,23,12,15,16,12,0,0,5,13,8,0,0,12,16,12,12,15,8,4,18,23,8,15,14,23,36,29,24,28,28,29,19,13,10,16,20,22,25,57,58,60,58,59,52,54,38,38,44,61,70,55,52,44,42,27,38,40,44,38,24,18,18,18,17,11,17,27,49,64,63,60,39,29,24,20,18,3,21,25,23,27,27,27,24,22,34,41,32,27,21,20,22,31,38,30,7,22,13,8,15,13,13,17,12,15,12,17,20,29,32,25,22,25,24,37,43,38,45,43,55,49,42,31,29,43,44,51,49,39,37,46,52,46,40,33,48,51,47,43,45,32,28,29,32,19,26,21,34,39,25,27,41,27,13,18,17,17,17,17,8,12,3,0,0,0,5,3,9,12,3,0,0,17,30,25,17,10,0,0,0,0,0,0,0,0,0,10,17,17,10,0,5,5,10,13,8,0,10,7,26,25,10,17,30,17,0,5,18,29,37,47,53,56,54,51,43,51,48,48,47,44,44,48,52,52,47,65,73,64,74,100,67,54,67,68,77,68,60,66,75,80,98,99,100,100,100,98,100,100,100,100,100,91,82,79,75,66,61,61,61,59,72,79,88,88,98,100,100,100,74,80,93,95,95,92,97,100,99,98,87,100,88,77,71,94,100,84,53,26,8,8,8,5,12,16,17,20,20,21,32,37,27,16,24,36,36,17,22,42,37,46,53,54,49,43,44,36,29,38,40,39,33,31,34,39,35,22,28,32,24,32,34,31,34,29,24,28,23,27,14,16,12,8,15,12,8,20,29,34,44,41,62,63,55,47,47,47,59,56,35,27,8,41,100,100,100,94,100,100,100,100,100,100,100,100,100,88,26,27,35,34,31,19,26,23,10,12,20,16,8,5,8,8,8,13,16,12,5,18,23,5,12,15,9,15,13,13,12,14,8,10,8,10,13,8,10,12,13,15,9,7,10,10,21,26,18,40,24,13,8,0,51,39,69,58,81,33,8,21,31,100,100,58,50,58,79,68,57,45,46,84,59,67,39,37,32,45,42,39,27,31,47,45,52,78,100,50,54,70,73,66,72,84,100,45,52,80,69,46,71,59,93,55,57,56,85,34,37,43,10,30,20,11,10,100,100,100,100,100,0,0,0,0,0,0,0,0,0,0,0,0,0,0,0,0,0,0,0,0,0,0,0,0,0,0,0,0,0,0,0,0,0,0,0,0,0,0,0,0,0,0,0,0,0,0,0,0,0,0,0,0,0,0,0,0,0,0,0,0,0,0
0,0,0,100,100,100,30,9,48,51,42,43,37,20,8,17,22,56,61,32,20,17,39,48,62,78,48,34,24,24,37,45,44,67,60,53,42,37,24,18,5,15,16,17,13,8,5,10,10,8,13,13,12,8,5,8,13,8,12,9,13,4,13,8,10,13,7,10,10,5,3,9,3,0,0,5,3,8,13,9,0,8,10,10,5,0,0,8,13,8,12,8,0,5,7,12,10,13,16,16,18,15,8,0,0,12,16,15,8,12,9,12,8,17,17,17,26,30,20,25,21,30,28,35,35,52,52,51,56,48,51,52,37,24,33,27,24,17,10,8,8,12,17,17,8,12,19,30,25,23,10,12,18,13,8,17,17,16,27,17,34,26,24,26,26,8,3,5,0,13,19,22,25,8,5,18,30,33,37,37,32,23,20,13,50,78,100,100,100,97,100,100,72,76,55,32,19,31,48,74,100,100,100,100,89,24,16,9,53,100,39,71,100,71,63,88,69,48,25,5,3,21,33,25,20,26,31,21,5,28,25,71,100,100,100,100,100,100,100,23,45,84,100,89,78,78,47,29,32,15,15,21,33,17,13,5,13,5,17,26,41,38,29,47,36,12,13,17,5,8,30,24,17,8,0,0,0,0,0,8,25,24,29,29,33,44,59,63,56,35,56,69,49,52,60,61,43,45,24,27,28,20,12,13,16,15,12,0,0,3,13,13,12,8,12,12,10,13,12,13,10,9,26,20,17,17,13,27,36,28,37,27,41,29,18,8,12,18,22,17,30,54,60,60,60,63,57,46,45,43,65,63,57,57,47,44,40,37,33,29,32,32,27,17,19,23,17,17,23,50,65,59,35,32,28,28,19,12,12,25,5,25,14,16,12,16,29,34,20,20,13,13,20,33,28,30,24,17,16,8,12,12,5,15,19,25,28,28,28,50,54,50,34,32,26,37,41,45,38,36,38,42,48,36,51,42,51,54,47,49,41,41,51,55,49,46,40,54,57,43,36,33,42,34,31,21,22,19,21,31,24,21,41,35,28,15,14,18,8,12,12,8,13,5,0,0,0,3,9,5,13,8,8,5,13,13,25,30,17,0,0,0,0,0,0,0,0,0,7,26,26,7,0,3,9,5,5,4,3,5,0,17,30,25,25,30,17,8,23,35,46,47,39,43,33,36,31,36,46,40,39,43,35,31,36,31,36,44,62,69,88,83,100,100,100,74,79,100,86,100,87,82,76,76,80,82,81,79,83,83,84,91,100,100,100,80,88,96,84,72,65,60,67,74,74,86,93,100,100,100,100,96,88,77,71,73,83,86,88,73,68,73,94,89,81,89,91,94,93,78,61,38,12,9,3,12,15,12,13,22,27,21,31,31,34,29,33,38,27,15,13,17,31,40,49,55,52,38,41,24,43,50,39,32,35,34,46,28,19,29,36,36,31,32,36,40,31,32,29,29,24,13,13,8,8,26,17,10,13,19,38,40,45,64,64,57,56,51,47,55,56,39,37,8,11,100,100,100,81,100,100,100,100,100,100,100,100,100,100,34,39,38,51,69,60,27,25,12,12,24,25,5,8,15,15,8,13,12,12,3,9,15,8,18,17,10,8,12,8,13,5,9,3,0,5,3,8,13,8,9,8,17,26,17,17,26,10,15,18,26,8,15,12,8,5,10,47,44,46,20,23,35,61,39,47,33,34,63,75,67,65,65,52,55,35,33,27,20,13,16,19,31,24,27,30,40,79,84,83,62,62,72,78,85,100,92,82,69,76,42,49,85,47,23,81,74,37,69,55,77,46,10,22,31,10,0,100,100,100,100,100,100,100,0,0,0,0,0,0,0,0,0,0,0,0,0,0,0,0,0,0,0,0,0,0,0,0,0,0,0,0,0,0,0,0,0,0,0,0,0,0,0,0,0,0,0,0,0,0,0,0,0,0,0,0,0,0,0,0,0,0,0,0
0,0,0,100,100,100,24,34,91,62,20,43,44,24,12,19,32,53,63,51,16,17,41,32,65,65,47,23,15,19,43,59,60,51,55,49,29,19,13,8,8,17,18,5,10,13,5,5,10,13,12,3,5,8,8,13,9,13,13,9,15,13,10,5,13,14,12,13,8,5,5,3,5,0,0,0,0,0,12,8,9,7,13,13,12,8,5,12,13,8,17,8,12,18,17,16,25,21,16,15,4,13,8,5,3,13,12,8,15,12,13,13,18,19,15,16,28,20,18,25,21,30,45,39,31,48,47,51,48,44,57,49,29,34,32,31,28,19,22,18,12,10,18,10,4,13,20,32,34,16,3,14,5,13,9,12,8,20,37,40,31,24,29,32,19,10,13,10,5,8,17,34,25,17,26,32,39,33,41,40,36,20,12,16,36,100,100,100,100,100,97,45,27,26,10,13,36,63,84,89,100,61,73,84,100,21,16,14,34,80,57,61,96,17,20,78,83,52,12,13,13,17,17,13,35,51,49,32,12,27,79,99,56,100,100,100,100,100,100,86,100,100,100,95,49,38,32,28,22,14,13,24,21,22,13,17,8,8,8,25,37,28,13,46,40,20,21,16,5,20,34,29,15,5,5,3,5,5,8,23,32,34,31,29,37,44,61,68,52,40,61,63,65,43,56,47,48,41,29,36,28,17,12,12,11,15,12,0,0,5,8,12,12,15,12,13,5,8,13,13,16,13,20,29,20,16,20,29,29,47,43,31,33,30,18,13,12,13,11,16,20,26,44,52,57,65,58,49,41,40,56,60,52,50,50,57,49,41,34,28,32,30,24,20,24,20,18,11,51,61,56,47,41,51,32,29,22,17,23,12,25,20,8,13,10,17,24,31,18,15,5,13,8,18,23,7,17,12,13,8,12,12,5,12,24,31,31,31,31,45,57,51,40,42,40,40,45,57,52,38,36,33,40,49,51,53,43,38,33,33,35,38,43,57,60,55,52,50,40,27,38,36,38,41,29,17,24,25,22,22,24,24,42,38,20,11,17,5,0,12,12,12,12,0,0,0,0,8,0,13,9,15,13,13,13,13,8,25,25,10,7,10,0,0,0,0,0,0,10,17,17,10,0,8,8,8,10,5,9,3,0,10,17,25,25,17,19,22,30,33,47,41,32,37,37,32,34,25,24,31,41,40,45,45,35,49,44,43,47,69,77,75,88,100,98,91,87,96,100,100,100,100,94,93,76,65,66,64,71,86,68,81,100,100,100,80,79,87,100,100,93,88,80,79,79,77,88,100,100,100,100,97,96,96,88,75,75,77,74,68,62,57,79,83,81,98,98,90,85,94,76,63,41,21,3,12,16,18,16,26,26,24,29,32,30,26,31,42,35,22,17,0,10,34,51,66,54,37,31,29,31,37,38,30,40,40,40,37,20,19,35,38,36,31,41,43,40,36,37,20,24,16,13,11,17,18,23,16,10,15,35,44,43,51,61,58,60,60,51,55,47,39,28,8,15,100,100,100,100,100,100,100,100,100,87,68,93,100,100,26,43,63,87,100,82,17,20,17,12,28,25,0,12,12,8,13,8,12,16,13,13,15,12,17,17,8,0,0,8,13,9,0,8,5,8,12,15,13,26,26,25,30,17,26,26,25,0,0,12,12,5,8,12,13,13,8,5,0,0,10,13,12,18,27,9,63,85,62,28,36,56,55,74,74,70,45,40,16,5,12,12,17,47,57,65,26,30,36,43,63,77,47,89,74,76,92,92,84,100,100,84,70,35,52,72,25,85,43,55,98,56,12,16,26,10,0,100,100,100,100,100,100,100,100,100,100,0,0,0,0,0,0,0,0,0,0,0,0,0,0,0,0,0,0,0,0,0,0,0,0,0,0,0,0,0,0,0,0,0,0,0,0,0,0,0,0,0,0,0,0,0,0,0,0,0,0,0,0,0,0,0,0,0
0,0,0,0,100,100,100,44,70,54,30,37,56,42,10,17,35,47,80,46,24,27,58,60,51,56,47,36,24,34,43,50,40,40,29,24,21,12,10,5,12,12,3,5,5,13,8,0,5,8,15,10,10,13,13,13,10,10,13,10,8,8,5,5,8,8,12,16,9,3,0,0,0,0,5,3,5,5,13,10,8,5,8,12,12,15,8,12,8,14,25,23,12,19,21,17,16,19,15,5,3,12,9,10,12,17,10,8,15,7,8,14,23,15,5,21,28,16,17,24,24,20,32,50,41,43,51,47,40,55,57,47,37,32,35,31,31,29,20,20,27,23,20,11,13,10,8,23,21,31,29,23,25,18,9,13,23,37,53,43,37,29,21,25,18,16,13,13,21,21,22,29,16,13,29,29,24,41,56,51,42,32,10,18,46,70,100,100,58,100,75,56,28,20,25,53,80,78,89,97,69,66,46,61,91,88,26,13,25,35,88,77,100,75,44,96,90,54,17,4,10,12,16,32,62,69,56,45,42,59,17,42,89,28,72,100,100,58,100,100,100,65,62,73,28,22,20,25,37,32,10,19,22,13,13,20,8,3,7,19,48,47,38,45,38,20,16,17,15,24,32,23,5,0,8,13,8,13,19,32,35,30,30,32,39,54,58,61,55,46,53,64,51,49,51,52,39,35,37,36,37,21,8,13,16,15,13,3,5,0,0,0,0,8,13,13,10,3,5,8,23,23,18,14,20,20,17,19,17,41,37,30,33,31,20,16,12,13,10,19,26,24,37,50,49,55,63,69,61,41,49,47,55,57,61,65,55,42,41,37,30,29,24,33,22,9,8,31,67,72,59,44,69,60,34,24,21,13,17,33,54,31,21,9,13,25,29,17,3,13,14,8,13,8,12,13,17,17,8,25,25,18,23,26,28,28,27,35,58,52,42,37,45,54,50,45,44,45,48,38,34,41,57,54,48,40,46,38,43,41,43,49,54,60,65,61,45,46,42,52,41,38,30,26,20,14,30,29,42,35,27,26,29,47,18,21,16,0,0,12,12,8,13,8,3,5,0,3,9,8,9,12,5,8,8,10,13,17,30,26,26,17,0,0,0,0,0,0,0,0,0,0,0,8,13,8,10,10,5,5,5,3,5,5,8,21,46,41,40,49,33,25,31,43,38,32,30,27,27,30,24,28,37,36,40,48,55,59,55,60,60,67,71,76,75,88,92,75,64,59,90,87,87,100,86,83,83,95,75,85,88,82,100,100,100,100,88,80,93,86,100,100,100,83,71,84,84,90,100,92,87,79,83,90,89,85,77,82,92,91,65,66,69,73,66,87,94,98,93,92,92,82,54,38,23,14,12,8,21,14,26,32,29,38,37,27,27,33,31,28,31,13,5,17,41,56,51,46,29,33,51,35,35,33,48,50,43,34,25,25,44,40,38,32,44,43,35,40,34,25,24,15,16,13,10,13,3,18,15,13,37,43,43,49,58,57,57,65,64,55,56,40,28,12,0,100,100,100,100,100,100,100,100,100,92,46,94,100,100,100,75,51,100,100,55,32,73,48,56,28,25,8,13,20,9,3,5,18,17,10,12,7,12,12,13,8,0,0,12,13,10,13,8,8,15,12,8,25,26,17,19,20,17,21,26,17,0,0,12,12,0,0,0,5,8,13,10,5,0,15,15,21,13,17,30,57,97,61,10,18,35,20,26,42,59,39,42,37,5,12,12,46,52,100,56,16,24,32,32,42,56,78,61,79,85,91,100,68,100,100,95,33,67,95,100,92,77,77,57,53,58,16,9,21,28,46,54,48,35,17,12,100,100,100,100,100,100,100,100,0,0,0,0,0,0,0,0,0,0,0,0,0,0,0,0,0,0,0,0,0,0,0,0,0,0,0,0,0,0,0,0,0,0,0,0,0,0,0,0,0,0,0,0,0,0,0,0,0,0,0,0,0,0
0,0,0,0,100,100,100,23,23,23,23,63,64,45,8,13,43,72,74,55,41,36,43,43,39,39,44,51,41,36,38,19,18,30,28,20,8,12,12,12,15,8,0,0,0,8,15,8,5,5,10,18,11,8,5,3,5,5,3,5,0,0,0,0,0,0,12,12,3,5,0,0,0,0,3,9,3,8,13,5,8,9,8,8,12,13,17,12,13,15,22,13,15,16,17,13,18,14,7,5,5,10,12,10,10,13,5,13,9,5,5,12,12,8,0,16,28,20,21,26,22,12,35,50,44,56,50,47,41,44,59,55,37,45,44,23,32,33,17,13,34,16,12,23,12,7,5,18,39,49,47,44,39,29,14,25,50,60,56,51,54,42,15,9,16,20,16,17,24,24,20,18,10,25,31,24,50,52,62,71,71,64,17,18,64,59,59,100,100,94,75,72,52,49,86,98,96,67,63,78,85,32,37,69,100,100,72,35,23,43,45,77,100,97,100,100,89,56,17,15,36,38,54,62,70,65,41,41,50,25,82,47,34,25,70,100,79,100,100,100,100,100,100,40,43,78,100,81,63,72,77,60,21,11,21,8,21,24,24,28,45,49,37,41,36,14,16,17,21,24,17,8,0,0,12,9,12,12,29,29,31,27,30,30,36,60,58,57,54,36,56,54,65,39,47,48,43,40,37,32,19,14,10,8,17,22,18,12,10,8,8,8,5,5,13,12,10,9,3,5,12,11,7,5,21,13,20,22,20,28,35,32,34,29,34,31,18,12,15,11,23,21,24,35,43,55,60,72,60,47,42,38,46,53,43,58,51,50,42,49,49,43,39,24,22,39,36,61,74,71,54,54,78,71,27,22,15,13,25,45,49,53,38,28,5,30,35,13,5,8,8,8,13,5,10,21,21,19,20,24,36,37,28,31,28,36,46,49,52,54,44,48,59,62,47,45,41,31,30,36,43,60,61,48,39,50,41,42,56,55,49,60,61,65,55,46,41,42,36,42,43,33,30,29,34,24,29,31,45,51,21,13,40,32,8,17,17,0,0,8,13,5,10,12,13,8,0,5,3,13,9,12,0,0,0,5,10,13,13,17,26,17,0,0,0,0,0,0,0,0,0,0,0,12,12,7,10,10,10,5,8,13,13,13,14,32,41,48,41,29,32,24,30,30,25,25,29,30,35,34,30,28,27,23,24,38,52,53,48,43,51,59,72,67,71,71,71,81,77,76,66,73,67,82,81,79,85,83,86,87,86,81,100,100,100,100,100,100,100,100,100,100,100,100,100,100,84,92,85,59,61,65,69,74,83,80,85,85,94,100,85,80,87,84,75,93,100,91,97,88,95,95,86,59,35,30,8,8,14,9,26,24,35,37,38,34,24,35,45,37,30,19,15,8,33,57,66,45,38,45,52,36,31,29,35,45,52,40,26,22,30,46,43,49,40,45,41,38,31,28,28,15,16,10,8,8,5,0,8,22,37,36,40,42,61,60,57,74,68,60,52,43,28,8,0,8,100,100,100,100,100,100,100,100,100,63,91,100,100,100,100,100,100,100,38,41,89,100,81,20,23,8,21,23,15,8,7,17,18,8,13,8,12,12,8,15,8,5,12,9,13,13,13,13,8,10,17,20,17,26,30,17,0,10,7,10,0,5,13,8,0,0,0,0,0,5,10,10,5,16,33,20,3,0,17,33,21,40,25,30,19,12,3,0,17,27,41,32,27,35,8,35,88,58,55,13,13,12,13,24,43,55,58,59,69,68,100,100,83,100,72,66,38,100,100,100,100,58,91,48,22,18,20,17,37,92,78,7,33,27,46,13,100,100,100,100,100,100,100,100,100,100,100,100,0,0,0,0,0,0,0,0,0,0,0,0,0,0,0,0,0,0,0,0,0,0,0,0,0,0,0,0,0,0,0,0,0,0,0,0,0,0,0,0,0,0,0,0,0,0,0,0,0
0,0,0,0,0,100,100,100,100,45,48,62,64,21,21,18,25,50,66,69,55,50,31,34,34,24,46,49,41,28,27,16,15,12,18,18,8,15,12,12,8,5,8,12,12,8,8,13,13,13,17,13,10,13,10,5,0,0,0,0,0,0,0,0,0,0,12,12,0,0,0,0,0,0,5,3,5,12,9,13,8,3,8,13,13,21,18,15,8,21,21,8,17,18,12,8,10,18,14,8,5,5,5,4,7,12,8,10,12,12,13,13,12,12,5,18,28,24,16,24,24,10,26,44,47,47,52,53,36,44,51,57,40,44,45,20,29,29,28,18,27,27,30,17,13,15,8,25,48,54,53,48,35,26,26,47,60,63,46,38,55,40,13,20,25,19,15,17,18,20,7,14,25,49,43,47,57,56,34,30,65,54,34,22,51,53,68,91,89,86,67,69,71,100,100,100,56,43,58,55,55,67,54,43,70,91,100,100,51,18,5,20,66,91,100,96,66,25,13,43,83,93,72,75,61,30,27,34,69,59,36,43,16,13,46,98,100,77,100,88,81,95,79,29,36,96,88,40,89,99,98,72,38,18,28,25,36,37,31,21,32,43,23,24,25,8,15,21,21,19,18,5,0,5,8,9,8,10,29,34,35,42,29,27,38,49,58,48,37,46,52,64,66,43,51,48,48,40,36,29,22,17,12,8,15,21,18,8,13,8,15,13,13,8,12,12,5,10,13,10,14,10,8,8,13,8,8,17,22,25,30,29,33,29,30,31,26,16,16,8,17,18,24,32,40,48,52,55,59,66,52,56,40,27,24,39,48,49,44,49,51,41,31,24,33,49,58,28,44,72,50,81,82,60,35,15,7,34,42,46,29,30,45,33,20,37,27,12,13,12,12,15,8,8,17,29,27,22,25,14,26,24,22,24,31,45,49,45,44,44,49,53,47,56,43,44,44,61,57,65,64,70,58,46,45,53,49,47,53,54,53,58,62,49,53,51,48,29,39,40,38,32,29,27,30,29,22,40,40,25,13,42,43,27,11,18,11,12,8,4,10,13,8,8,10,15,8,5,0,12,9,13,3,5,0,0,5,8,15,5,26,20,10,0,0,0,0,0,0,0,0,0,0,12,19,26,21,10,10,13,15,11,16,20,32,38,37,27,22,34,36,27,22,27,34,32,29,37,30,27,27,27,28,24,25,29,27,29,40,48,60,60,60,63,67,63,60,59,75,81,75,78,80,77,80,83,80,88,80,84,67,51,75,88,100,100,100,98,100,100,91,86,98,100,100,100,93,100,94,100,77,94,80,75,63,62,85,94,97,95,94,91,100,95,86,100,100,100,100,100,84,94,91,74,56,38,21,16,10,13,5,8,23,22,34,30,29,29,38,44,45,30,26,16,29,57,55,46,32,34,46,48,32,33,33,49,45,32,24,22,37,43,63,65,45,43,42,37,28,32,32,16,12,7,10,8,5,10,13,25,34,41,37,50,64,65,57,59,67,60,56,57,42,12,8,8,20,100,100,100,100,100,100,100,100,100,100,84,100,100,100,100,100,100,62,42,100,100,48,13,16,21,14,20,5,15,16,16,13,8,9,10,15,8,5,8,13,10,12,9,12,12,9,13,9,21,26,20,17,10,25,25,0,0,0,0,0,8,13,5,5,3,5,0,0,0,5,13,8,29,8,29,8,0,10,17,25,25,34,16,13,13,5,0,25,36,40,37,58,76,89,46,35,44,25,16,12,12,10,16,17,42,43,39,46,57,100,100,100,100,100,100,82,77,98,88,100,100,100,66,8,10,21,26,23,75,77,87,91,72,40,16,12,0,13,65,89,100,100,100,100,100,100,100,100,100,100,100,0,0,0,0,0,0,0,0,0,0,0,0,0,0,0,0,0,0,0,0,0,0,0,0,0,0,0,0,0,0,0,0,0,0,0,0,0,0,0,0,0,0,0,0,0
0,0,0,0,0,100,100,100,100,100,40,29,55,46,44,40,35,50,52,72,65,64,41,38,41,27,27,37,39,29,20,16,7,12,12,12,9,12,0,0,5,10,13,12,12,13,13,12,12,7,9,12,8,13,12,3,5,3,5,0,0,0,0,0,0,0,8,13,5,0,0,0,0,0,0,0,0,12,9,9,12,0,5,10,12,8,5,8,8,16,17,18,17,12,13,8,5,8,17,10,10,12,10,10,15,15,8,5,3,8,8,8,15,18,13,8,24,28,17,21,23,21,13,40,47,40,58,51,39,43,43,49,49,43,41,17,24,32,16,8,24,18,30,23,4,13,8,33,45,38,35,27,20,16,26,22,50,50,19,29,47,45,33,17,18,16,15,15,16,13,10,24,46,45,57,59,43,29,21,15,44,51,47,19,12,32,100,93,50,92,80,70,82,100,100,100,51,28,65,84,66,80,54,42,34,68,100,100,86,21,18,17,39,60,52,48,25,43,79,100,84,51,66,85,28,13,16,16,79,81,34,23,51,37,45,88,99,100,51,44,13,32,40,39,48,38,92,55,69,46,69,68,68,21,17,24,19,20,12,8,17,19,17,16,16,8,8,11,18,13,8,0,0,3,9,5,5,0,17,41,43,31,20,29,37,57,57,47,33,53,50,58,60,69,61,45,41,44,32,22,25,24,17,5,5,18,17,8,8,13,8,5,8,15,16,12,8,5,13,18,13,10,15,8,8,5,5,18,19,24,31,38,32,24,16,27,29,29,27,20,8,13,20,25,26,28,44,55,63,68,61,59,54,36,27,19,26,35,44,46,44,45,36,36,46,54,50,18,30,38,47,87,80,50,20,11,16,41,75,39,9,5,24,44,45,32,23,12,12,16,15,20,20,31,27,29,29,14,18,23,21,16,22,27,37,41,42,46,45,37,47,37,39,41,45,47,64,80,74,78,71,62,42,40,43,43,47,54,52,49,48,49,49,49,41,43,42,27,35,42,27,27,22,22,21,19,20,35,41,20,21,37,46,23,8,17,18,13,13,3,5,8,15,8,5,8,13,10,5,8,13,5,9,3,0,0,0,0,12,14,20,26,7,0,0,0,0,0,0,0,5,3,8,13,28,26,25,10,16,28,28,27,25,34,38,37,27,22,27,37,30,27,22,27,30,31,37,30,32,35,24,22,20,24,33,35,35,36,43,46,48,52,61,63,63,59,59,68,72,65,70,73,76,85,86,94,91,91,86,73,65,55,72,76,75,91,85,75,68,63,72,72,60,49,52,67,92,87,100,78,88,91,94,81,64,50,79,75,95,88,80,77,77,96,88,100,100,100,100,95,94,96,94,90,70,36,30,26,17,17,5,0,17,17,22,26,24,19,27,47,41,35,25,21,19,45,52,54,47,33,45,50,33,30,41,42,38,32,24,25,27,40,73,62,55,43,40,40,33,33,39,23,17,20,13,12,3,13,14,16,28,35,31,44,56,49,60,63,74,78,59,55,49,30,18,15,33,40,100,100,100,100,100,100,100,100,100,100,100,100,100,44,100,100,66,58,49,61,13,48,10,7,26,25,0,12,16,13,11,13,13,14,8,8,0,0,8,12,16,9,12,12,9,12,17,26,10,17,30,25,30,17,0,0,0,5,8,15,8,5,5,9,3,0,0,0,0,12,17,34,34,21,10,3,5,5,8,13,8,13,15,8,0,10,62,56,24,68,46,100,66,0,0,8,16,18,13,20,10,10,10,40,55,100,87,100,39,71,100,99,100,100,100,100,100,33,32,61,100,100,20,12,24,29,55,49,72,100,47,60,71,19,52,28,37,41,82,100,100,100,100,100,100,100,100,100,100,100,100,100,100,100,100,0,0,0,0,0,0,0,0,0,0,0,0,0,0,0,0,0,0,0,0,0,0,0,0,0,0,0,0,0,0,0,0,0,0,0,0,0,0,0,0
0,0,0,0,0,0,0,100,100,100,31,28,48,55,48,49,55,71,68,70,67,65,58,64,50,36,24,27,26,23,24,19,15,13,8,8,13,8,8,8,10,13,5,0,0,5,8,12,15,8,3,12,9,13,10,5,8,13,8,0,0,5,3,5,0,0,8,8,5,5,0,0,0,0,0,0,0,12,9,9,12,0,0,5,3,4,8,12,20,22,19,16,15,7,17,10,5,5,17,12,10,8,13,9,12,12,13,8,8,5,5,10,16,17,8,18,28,24,25,29,32,24,23,37,35,37,48,60,52,35,44,39,57,52,39,19,33,36,24,19,28,18,28,13,0,13,13,29,29,29,45,47,35,25,25,24,41,61,60,66,47,35,23,8,9,11,25,20,16,14,23,47,43,44,51,34,18,16,25,26,48,43,32,20,30,47,68,80,100,91,80,64,89,100,95,64,94,91,51,92,93,48,26,9,20,44,78,100,87,49,25,20,12,18,16,15,13,42,100,83,89,53,71,67,8,12,12,22,75,64,21,25,36,73,36,31,48,23,17,13,8,43,51,42,32,100,61,79,45,46,54,52,38,32,29,18,20,18,20,15,16,16,15,15,16,12,8,15,12,13,5,0,0,5,3,5,0,0,12,40,47,41,19,41,42,65,63,53,44,52,49,46,58,63,68,49,33,29,30,29,53,42,25,0,0,12,16,15,12,12,3,0,0,8,17,18,8,9,3,5,10,13,16,17,18,12,12,10,8,25,24,34,49,41,27,19,24,32,25,22,15,18,16,16,19,27,37,46,69,63,47,41,46,39,30,29,19,22,47,51,44,48,38,41,53,60,64,48,39,38,61,59,55,17,12,15,20,63,73,50,17,5,31,68,50,17,12,13,5,13,13,13,26,25,29,29,20,25,12,29,34,20,36,46,51,47,38,35,37,38,29,42,43,53,47,48,58,74,77,67,58,40,37,42,45,46,55,58,52,52,48,47,46,47,39,37,24,24,24,19,26,30,27,24,19,29,29,39,26,22,16,26,22,8,12,12,10,12,10,5,0,0,12,12,0,0,5,13,10,10,5,9,5,5,5,0,0,0,12,12,7,25,17,0,0,0,5,3,5,5,10,12,12,10,24,17,29,43,32,31,32,24,24,39,37,24,22,24,24,19,11,16,21,27,32,36,29,27,32,26,26,28,27,27,37,31,30,32,35,34,46,49,53,61,64,59,60,60,65,69,69,73,76,84,87,96,91,91,83,77,74,65,62,75,69,75,74,57,52,57,65,68,55,34,29,67,76,75,75,95,84,87,100,100,95,55,61,52,70,84,82,74,57,63,67,78,69,79,86,91,89,100,100,95,68,69,41,35,27,26,5,5,13,7,18,27,29,25,25,30,36,41,29,22,19,34,43,54,51,45,50,45,44,26,42,42,38,37,29,23,23,37,69,64,47,53,36,37,33,28,31,24,22,22,13,9,18,13,13,31,34,28,31,40,53,50,52,64,81,81,58,54,55,36,20,8,25,32,83,100,100,100,100,100,100,100,100,100,100,100,100,100,100,100,100,89,65,54,99,37,8,10,20,25,5,12,12,13,8,8,20,11,15,8,0,0,8,13,7,9,10,15,9,14,26,17,0,10,17,25,17,10,0,0,5,10,13,8,5,8,9,8,5,0,0,10,17,25,38,31,26,20,13,12,13,13,13,12,12,12,8,10,17,26,45,86,53,27,100,71,87,0,0,12,12,17,29,24,13,5,10,28,89,22,100,88,37,39,72,74,42,79,100,100,73,35,52,79,100,52,45,25,38,57,10,76,37,86,88,31,92,23,17,82,57,22,67,36,57,35,46,67,100,100,100,33,100,100,100,100,100,100,100,100,100,100,100,0,0,0,0,0,0,0,0,0,0,0,0,0,0,0,0,0,0,0,0,0,0,0,0,0,0,0,0,0,0,0,0,0,0,0,0
0,0,0,0,0,0,0,0,100,100,52,46,31,24,29,32,45,68,75,73,52,51,56,50,37,29,18,21,22,16,25,27,20,10,5,5,3,8,15,15,9,12,0,0,0,0,0,0,12,12,8,12,5,3,5,0,12,9,13,8,3,8,9,3,0,5,10,8,9,8,0,0,0,5,3,5,0,8,13,8,13,8,8,8,5,8,15,16,25,19,18,17,10,5,10,17,8,12,13,0,8,5,13,9,13,8,8,13,13,17,17,8,7,20,23,29,41,28,29,27,32,22,17,28,32,44,44,61,62,39,51,53,51,53,26,22,33,36,24,14,24,19,25,17,13,21,23,28,20,18,32,34,37,32,28,28,53,56,73,62,46,27,20,17,58,48,64,54,34,18,19,38,48,63,31,7,13,17,17,28,53,49,23,25,16,54,18,12,68,87,100,100,100,99,99,100,61,82,91,84,52,33,34,19,21,46,93,100,87,41,19,8,0,5,3,5,16,41,43,87,54,88,85,27,12,21,22,50,63,47,10,20,20,28,33,14,13,12,18,12,13,34,57,49,57,54,68,62,100,66,40,26,20,27,21,22,22,24,19,8,8,18,12,12,20,14,13,12,15,8,0,0,0,0,0,0,0,5,18,41,43,40,33,53,54,62,60,42,47,55,44,46,52,58,57,40,41,18,23,62,64,49,24,0,5,13,7,8,13,13,3,5,3,5,15,19,19,13,5,0,5,7,16,17,20,16,12,8,9,24,25,32,38,37,24,31,19,20,20,11,13,25,19,12,15,19,30,35,45,52,57,38,36,44,46,38,29,21,26,36,51,50,43,37,42,57,60,52,52,57,43,36,21,19,23,16,15,48,63,47,42,38,53,52,49,24,21,10,13,12,3,12,16,13,12,16,22,31,41,44,29,48,45,47,52,51,37,43,40,44,37,43,48,52,51,46,45,49,41,31,34,27,43,50,45,52,58,52,45,49,46,45,41,37,29,23,27,27,27,25,27,34,32,21,19,30,36,31,30,25,24,21,15,5,12,12,5,3,5,0,0,0,12,12,0,0,5,13,4,15,15,8,3,9,3,0,0,0,12,12,17,25,7,0,0,0,8,13,8,8,13,8,3,5,25,26,17,47,37,24,26,29,30,21,21,18,25,26,24,19,22,29,30,35,33,32,24,27,29,29,30,38,31,31,37,33,41,36,45,45,43,54,50,40,43,64,61,64,51,55,72,84,79,79,92,96,93,92,79,81,73,72,68,63,60,72,73,88,73,71,66,74,71,67,52,51,52,71,85,90,80,93,100,99,91,86,90,85,75,77,98,97,76,63,58,59,68,66,83,89,77,100,100,100,87,69,58,54,33,32,26,17,10,5,10,29,24,19,30,35,41,40,26,22,14,22,22,45,52,50,40,51,49,32,28,34,32,42,33,19,20,37,56,50,48,42,38,43,40,36,20,20,29,20,0,18,30,31,39,41,41,26,36,36,44,46,56,54,74,82,69,44,52,49,32,23,32,35,32,88,100,100,100,100,100,100,100,100,100,100,100,100,100,100,100,100,100,74,29,51,45,41,17,16,7,13,8,8,15,8,12,12,13,8,0,0,12,12,10,5,5,10,13,14,26,10,0,0,0,0,0,0,0,0,8,13,5,0,0,12,9,15,12,8,5,17,30,29,20,13,25,20,11,8,10,41,36,69,31,41,0,17,30,17,39,43,19,8,8,13,48,35,46,26,33,23,47,22,12,8,5,28,28,95,64,81,24,29,61,60,47,60,92,94,100,78,56,62,100,100,37,78,67,32,53,34,63,24,51,74,100,58,58,40,63,43,53,36,36,17,23,12,32,17,58,48,42,54,15,4,37,100,100,100,100,100,100,100,100,100,100,100,100,100,0,0,0,0,0,0,0,0,0,0,0,0,0,0,0,0,0,0,0,0,0,0,0,0,0,0,0,0,0
0,0,0,0,0,0,0,0,100,100,40,37,25,20,21,16,41,44,42,37,29,29,34,34,24,12,10,16,14,7,13,20,12,5,5,0,0,12,12,12,9,12,0,0,0,0,0,0,12,12,3,13,10,5,0,0,12,13,8,8,13,8,3,5,0,8,13,10,13,8,8,8,5,3,9,3,5,8,8,8,10,12,13,13,13,20,14,16,23,17,5,8,15,8,12,9,12,8,13,12,13,13,10,13,8,9,5,5,5,8,21,5,5,13,13,34,43,45,31,27,24,23,8,30,37,40,44,52,48,34,51,59,55,57,38,27,41,39,24,10,24,14,20,20,21,22,17,8,17,8,16,20,24,27,28,20,21,35,41,39,22,24,40,60,38,84,75,52,45,27,17,29,50,59,45,34,33,42,52,52,54,38,24,15,18,20,23,5,48,70,96,93,100,63,45,100,100,34,89,41,19,31,24,33,28,100,92,100,100,27,26,5,0,0,5,3,21,28,16,11,50,79,96,68,55,68,67,54,49,29,17,28,18,8,12,25,20,23,20,12,13,31,48,57,42,24,13,51,68,62,33,16,13,15,11,12,12,21,16,12,17,19,20,12,14,16,11,13,8,5,0,0,0,0,5,8,12,18,21,36,45,55,60,65,60,56,48,42,48,49,42,50,44,58,55,47,35,5,21,66,53,40,29,8,18,13,3,0,3,12,9,10,13,8,5,13,26,20,8,5,0,3,9,7,20,19,18,12,16,13,14,19,26,31,24,29,42,16,16,13,7,16,20,20,12,16,32,38,40,50,51,46,46,49,54,45,37,37,11,29,48,44,46,38,32,33,51,59,43,55,41,24,21,26,25,12,5,18,37,49,62,66,59,43,36,36,25,14,17,14,12,20,17,13,26,39,33,41,40,45,49,55,48,45,45,45,41,38,47,40,45,43,42,41,35,35,36,35,32,31,29,41,55,58,53,51,52,49,48,40,38,38,29,19,22,24,34,30,25,31,21,31,29,24,35,30,34,29,21,28,18,17,10,3,8,8,5,0,0,0,0,0,12,12,5,3,8,13,20,10,12,12,8,0,8,5,8,8,13,14,21,21,10,0,0,0,8,13,8,8,13,5,0,0,25,25,25,29,9,8,12,20,23,8,11,19,27,27,22,26,22,30,35,30,32,29,22,26,38,41,38,34,31,44,48,40,52,45,52,51,43,41,34,36,45,60,61,68,58,68,72,76,76,80,67,81,82,76,71,63,69,62,57,59,65,70,78,72,72,75,75,76,72,75,57,52,56,60,70,89,84,80,94,99,88,81,85,100,78,86,92,90,87,86,92,90,73,77,81,85,94,89,100,100,100,93,82,76,71,36,30,13,5,5,3,13,16,12,20,34,37,40,37,20,15,24,27,30,53,60,44,40,47,41,22,25,32,29,41,35,29,36,54,52,36,40,41,45,48,40,15,15,24,28,14,17,27,34,43,57,32,8,19,32,45,41,42,53,69,93,86,54,62,52,40,33,23,29,32,28,54,100,100,100,100,100,100,100,100,100,100,100,100,100,100,100,100,100,36,54,80,41,14,15,17,13,13,5,8,15,12,16,17,8,5,5,13,12,15,10,8,8,8,27,17,0,0,0,0,0,0,0,0,0,12,12,0,0,5,13,10,8,12,15,8,17,26,10,0,10,26,17,27,16,10,37,82,35,79,43,44,56,17,10,17,32,17,13,8,13,36,88,39,24,78,40,34,26,8,12,5,13,8,51,68,92,48,30,37,39,42,56,52,96,100,100,40,72,100,100,100,100,35,100,55,26,39,47,52,60,80,65,28,30,25,21,69,49,35,53,18,21,19,34,25,52,78,31,10,26,43,74,35,55,39,100,100,100,100,100,100,100,100,100,100,100,100,0,0,0,0,0,0,0,0,0,0,0,0,0,0,0,0,0,0,0,0,0,0,0,0,0,0
